ply
format ascii 1.0
element vertex 864
property float x
property float y
property float z
property float r
property float g
property float b
property float x_coord
property float y_coord
end_header
-41.16101 -81.15483 255.0 162.0 155.0 147.0 219.0 53.0
-40.72334 -81.15483 255.0 162.0 155.0 147.0 220.0 53.0
-40.285664 -81.15483 255.0 162.0 155.0 147.0 221.0 53.0
-39.84799 -81.15483 255.0 161.0 154.0 146.0 222.0 53.0
-39.410313 -81.15483 255.0 161.0 154.0 146.0 223.0 53.0
-38.972637 -81.15483 255.0 161.0 154.0 146.0 224.0 53.0
-38.534966 -81.15483 255.0 161.0 154.0 146.0 225.0 53.0
-38.09729 -81.15483 255.0 161.0 154.0 146.0 226.0 53.0
-37.659615 -81.15483 255.0 161.0 154.0 146.0 227.0 53.0
-37.22194 -81.15483 255.0 161.0 154.0 146.0 228.0 53.0
-36.784264 -81.15483 255.0 161.0 154.0 146.0 229.0 53.0
-36.346592 -81.15483 255.0 161.0 154.0 146.0 230.0 53.0
-35.908916 -81.15483 255.0 161.0 154.0 146.0 231.0 53.0
-35.47124 -81.15483 255.0 160.0 153.0 145.0 232.0 53.0
-35.033566 -81.15483 255.0 160.0 153.0 145.0 233.0 53.0
-34.59589 -81.15483 255.0 160.0 153.0 145.0 234.0 53.0
-34.15822 -81.15483 255.0 161.0 154.0 146.0 235.0 53.0
-33.720543 -81.15483 255.0 161.0 154.0 146.0 236.0 53.0
-33.282867 -81.15483 255.0 162.0 155.0 147.0 237.0 53.0
-32.845192 -81.15483 255.0 162.0 155.0 147.0 238.0 53.0
-32.407516 -81.15483 255.0 162.0 155.0 147.0 239.0 53.0
-31.969843 -81.15483 255.0 160.0 153.0 145.0 240.0 53.0
-31.53217 -81.15483 255.0 161.0 154.0 146.0 241.0 53.0
-31.094494 -81.15483 255.0 161.0 154.0 146.0 242.0 53.0
-30.656818 -81.15483 255.0 162.0 155.0 147.0 243.0 53.0
-30.219145 -81.15483 255.0 162.0 155.0 147.0 244.0 53.0
-29.78147 -81.15483 255.0 161.0 154.0 146.0 245.0 53.0
-29.343796 -81.15483 255.0 161.0 154.0 146.0 246.0 53.0
-28.90612 -81.15483 255.0 160.0 153.0 145.0 247.0 53.0
-28.468447 -81.15483 255.0 160.0 153.0 145.0 248.0 53.0
-28.030771 -81.15483 255.0 160.0 153.0 145.0 249.0 53.0
-27.593096 -81.15483 255.0 161.0 154.0 146.0 250.0 53.0
-27.155422 -81.15483 255.0 161.0 154.0 146.0 251.0 53.0
-26.717747 -81.15483 255.0 161.0 154.0 146.0 252.0 53.0
-26.280073 -81.15483 255.0 161.0 154.0 146.0 253.0 53.0
-25.842398 -81.15483 255.0 162.0 155.0 147.0 254.0 53.0
-25.404722 -81.15483 255.0 162.0 155.0 147.0 255.0 53.0
-137.01178 -80.71721 255.0 159.0 153.0 141.0 0.0 54.0
-136.5741 -80.71721 255.0 159.0 153.0 141.0 1.0 54.0
-136.13643 -80.71721 255.0 160.0 154.0 142.0 2.0 54.0
-135.69875 -80.71721 255.0 161.0 155.0 143.0 3.0 54.0
-135.26108 -80.71721 255.0 161.0 155.0 143.0 4.0 54.0
-134.8234 -80.71721 255.0 162.0 156.0 144.0 5.0 54.0
-134.38573 -80.71721 255.0 162.0 156.0 144.0 6.0 54.0
-133.94804 -80.71721 255.0 163.0 157.0 145.0 7.0 54.0
-133.51038 -80.71721 255.0 165.0 159.0 147.0 8.0 54.0
-133.07271 -80.71721 255.0 164.0 158.0 146.0 9.0 54.0
-132.63503 -80.71721 255.0 163.0 157.0 145.0 10.0 54.0
-132.19736 -80.71721 255.0 162.0 156.0 144.0 11.0 54.0
-131.75967 -80.71721 255.0 161.0 155.0 143.0 12.0 54.0
-131.322 -80.71721 255.0 162.0 156.0 144.0 13.0 54.0
-130.88432 -80.71721 255.0 162.0 156.0 144.0 14.0 54.0
-130.44666 -80.71721 255.0 163.0 157.0 145.0 15.0 54.0
-130.00897 -80.71721 255.0 162.0 155.0 145.0 16.0 54.0
-129.5713 -80.71721 255.0 162.0 155.0 145.0 17.0 54.0
-129.13362 -80.71721 255.0 161.0 154.0 144.0 18.0 54.0
-128.69595 -80.71721 255.0 161.0 154.0 144.0 19.0 54.0
-128.25829 -80.71721 255.0 160.0 153.0 143.0 20.0 54.0
-127.8206 -80.71721 255.0 160.0 153.0 143.0 21.0 54.0
-127.38293 -80.71721 255.0 160.0 153.0 143.0 22.0 54.0
-126.94525 -80.71721 255.0 160.0 153.0 143.0 23.0 54.0
-126.50758 -80.71721 255.0 162.0 155.0 145.0 24.0 54.0
-126.06991 -80.71721 255.0 161.0 154.0 144.0 25.0 54.0
-125.63223 -80.71721 255.0 161.0 154.0 144.0 26.0 54.0
-125.19456 -80.71721 255.0 161.0 154.0 144.0 27.0 54.0
-124.75688 -80.71721 255.0 161.0 154.0 144.0 28.0 54.0
-124.31921 -80.71721 255.0 161.0 154.0 144.0 29.0 54.0
-123.88153 -80.71721 255.0 161.0 154.0 144.0 30.0 54.0
-123.443855 -80.71721 255.0 160.0 153.0 143.0 31.0 54.0
-123.00618 -80.71721 255.0 162.0 155.0 145.0 32.0 54.0
-122.568504 -80.71721 255.0 161.0 154.0 144.0 33.0 54.0
-122.13084 -80.71721 255.0 160.0 153.0 143.0 34.0 54.0
-121.69316 -80.71721 255.0 159.0 152.0 142.0 35.0 54.0
-121.255486 -80.71721 255.0 159.0 152.0 142.0 36.0 54.0
-120.81781 -80.71721 255.0 160.0 153.0 143.0 37.0 54.0
-120.380135 -80.71721 255.0 161.0 154.0 144.0 38.0 54.0
-119.94246 -80.71721 255.0 162.0 155.0 145.0 39.0 54.0
-119.50478 -80.71721 255.0 163.0 156.0 146.0 40.0 54.0
-119.06711 -80.71721 255.0 163.0 156.0 146.0 41.0 54.0
-118.62943 -80.71721 255.0 163.0 156.0 146.0 42.0 54.0
-118.19176 -80.71721 255.0 163.0 156.0 146.0 43.0 54.0
-117.75409 -80.71721 255.0 163.0 156.0 146.0 44.0 54.0
-117.316414 -80.71721 255.0 163.0 156.0 146.0 45.0 54.0
-116.87874 -80.71721 255.0 163.0 156.0 146.0 46.0 54.0
-116.44106 -80.71721 255.0 163.0 156.0 146.0 47.0 54.0
-116.00339 -80.71721 255.0 162.0 155.0 145.0 48.0 54.0
-115.56571 -80.71721 255.0 162.0 155.0 145.0 49.0 54.0
-115.12804 -80.71721 255.0 162.0 155.0 145.0 50.0 54.0
-114.69036 -80.71721 255.0 161.0 154.0 144.0 51.0 54.0
-114.252686 -80.71721 255.0 161.0 154.0 144.0 52.0 54.0
-113.81501 -80.71721 255.0 160.0 153.0 143.0 53.0 54.0
-113.37734 -80.71721 255.0 160.0 153.0 143.0 54.0 54.0
-112.93967 -80.71721 255.0 160.0 153.0 143.0 55.0 54.0
-112.50199 -80.71721 255.0 161.0 154.0 144.0 56.0 54.0
-112.064316 -80.71721 255.0 162.0 155.0 145.0 57.0 54.0
-111.62664 -80.71721 255.0 162.0 155.0 145.0 58.0 54.0
-111.188965 -80.71721 255.0 162.0 155.0 145.0 59.0 54.0
-110.75129 -80.71721 255.0 163.0 156.0 146.0 60.0 54.0
-110.313614 -80.71721 255.0 163.0 156.0 146.0 61.0 54.0
-109.87594 -80.71721 255.0 164.0 157.0 147.0 62.0 54.0
-109.43827 -80.71721 255.0 164.0 157.0 147.0 63.0 54.0
-109.000595 -80.71721 255.0 162.0 155.0 145.0 64.0 54.0
-108.56292 -80.71721 255.0 162.0 155.0 145.0 65.0 54.0
-108.125244 -80.71721 255.0 162.0 155.0 145.0 66.0 54.0
-106.84296 -80.08413 253.0 162.0 155.0 145.0 67.0 54.0
-103.88519 -78.184906 247.0 162.0 155.0 145.0 68.0 54.0
-101.78576 -76.918755 243.0 162.0 155.0 145.0 69.0 54.0
-100.53437 -76.285675 241.0 162.0 155.0 145.0 70.0 54.0
-100.12073 -76.285675 241.0 162.0 155.0 145.0 71.0 54.0
-99.29336 -75.96914 240.0 162.0 155.0 145.0 72.0 54.0
-98.88143 -75.96914 240.0 162.0 155.0 145.0 73.0 54.0
-98.05921 -75.652596 239.0 162.0 155.0 145.0 74.0 54.0
-97.649 -75.652596 239.0 161.0 154.0 144.0 75.0 54.0
-96.83193 -75.33606 238.0 161.0 154.0 144.0 76.0 54.0
-96.018295 -75.01952 237.0 160.0 153.0 143.0 77.0 54.0
-95.20809 -74.70299 236.0 160.0 153.0 143.0 78.0 54.0
-94.803024 -74.70299 236.0 160.0 153.0 143.0 79.0 54.0
-94.79795 -75.01952 237.0 161.0 154.0 144.0 80.0 54.0
-94.391174 -75.01952 237.0 161.0 154.0 144.0 81.0 54.0
-93.98439 -75.01952 237.0 161.0 154.0 144.0 82.0 54.0
-93.577614 -75.01952 237.0 161.0 154.0 144.0 83.0 54.0
-93.17083 -75.01952 237.0 161.0 154.0 144.0 84.0 54.0
-92.76405 -75.01952 237.0 161.0 154.0 144.0 85.0 54.0
-92.35727 -75.01952 237.0 161.0 154.0 144.0 86.0 54.0
-91.95049 -75.01952 237.0 161.0 154.0 144.0 87.0 54.0
-90.771194 -74.386444 235.0 160.0 153.0 143.0 88.0 54.0
-90.36784 -74.386444 235.0 160.0 153.0 143.0 89.0 54.0
-89.9645 -74.386444 235.0 160.0 153.0 143.0 90.0 54.0
-89.56115 -74.386444 235.0 160.0 153.0 143.0 91.0 54.0
-89.1578 -74.386444 235.0 160.0 153.0 143.0 92.0 54.0
-88.754456 -74.386444 235.0 160.0 153.0 143.0 93.0 54.0
-88.351105 -74.386444 235.0 160.0 153.0 143.0 94.0 54.0
-87.94776 -74.386444 235.0 160.0 153.0 143.0 95.0 54.0
-87.17188 -74.06991 234.0 161.0 154.0 144.0 96.0 54.0
-86.770256 -74.06991 234.0 160.0 153.0 143.0 97.0 54.0
-86.36862 -74.06991 234.0 160.0 153.0 143.0 98.0 54.0
-85.96699 -74.06991 234.0 160.0 153.0 143.0 99.0 54.0
-85.56536 -74.06991 234.0 159.0 152.0 142.0 100.0 54.0
-85.16373 -74.06991 234.0 159.0 152.0 142.0 101.0 54.0
-84.7621 -74.06991 234.0 159.0 152.0 142.0 102.0 54.0
-84.360466 -74.06991 234.0 158.0 151.0 141.0 103.0 54.0
-83.95884 -74.06991 234.0 159.0 152.0 142.0 104.0 54.0
-83.557205 -74.06991 234.0 159.0 152.0 142.0 105.0 54.0
-83.15557 -74.06991 234.0 160.0 153.0 143.0 106.0 54.0
-82.753944 -74.06991 234.0 161.0 154.0 144.0 107.0 54.0
-82.35231 -74.06991 234.0 161.0 154.0 144.0 108.0 54.0
-81.95068 -74.06991 234.0 160.0 153.0 143.0 109.0 54.0
-81.54905 -74.06991 234.0 159.0 152.0 142.0 110.0 54.0
-81.14742 -74.06991 234.0 159.0 152.0 142.0 111.0 54.0
-80.74579 -74.06991 234.0 160.0 151.0 142.0 112.0 54.0
-80.34416 -74.06991 234.0 161.0 152.0 143.0 113.0 54.0
-79.94253 -74.06991 234.0 162.0 153.0 144.0 114.0 54.0
-79.54089 -74.06991 234.0 162.0 153.0 144.0 115.0 54.0
-79.13927 -74.06991 234.0 161.0 152.0 143.0 116.0 54.0
-78.73763 -74.06991 234.0 160.0 151.0 142.0 117.0 54.0
-78.336006 -74.06991 234.0 159.0 150.0 141.0 118.0 54.0
-77.93437 -74.06991 234.0 158.0 149.0 140.0 119.0 54.0
-77.532745 -74.06991 234.0 159.0 150.0 141.0 120.0 54.0
-77.13111 -74.06991 234.0 159.0 150.0 141.0 121.0 54.0
-76.72948 -74.06991 234.0 159.0 150.0 141.0 122.0 54.0
-76.32785 -74.06991 234.0 160.0 151.0 142.0 123.0 54.0
-75.926216 -74.06991 234.0 160.0 151.0 142.0 124.0 54.0
-75.52459 -74.06991 234.0 160.0 151.0 142.0 125.0 54.0
-75.122955 -74.06991 234.0 161.0 152.0 143.0 126.0 54.0
-74.72133 -74.06991 234.0 161.0 152.0 143.0 127.0 54.0
-74.319695 -74.06991 234.0 159.0 152.0 142.0 128.0 54.0
-73.91806 -74.06991 234.0 159.0 152.0 142.0 129.0 54.0
-73.51643 -74.06991 234.0 159.0 152.0 142.0 130.0 54.0
-73.1148 -74.06991 234.0 160.0 153.0 143.0 131.0 54.0
-72.71317 -74.06991 234.0 160.0 153.0 143.0 132.0 54.0
-72.31154 -74.06991 234.0 161.0 154.0 144.0 133.0 54.0
-71.90991 -74.06991 234.0 161.0 154.0 144.0 134.0 54.0
-71.50828 -74.06991 234.0 161.0 154.0 144.0 135.0 54.0
-71.10664 -74.06991 234.0 159.0 152.0 142.0 136.0 54.0
-70.70502 -74.06991 234.0 159.0 152.0 142.0 137.0 54.0
-70.30338 -74.06991 234.0 159.0 152.0 142.0 138.0 54.0
-69.90176 -74.06991 234.0 159.0 152.0 142.0 139.0 54.0
-69.50012 -74.06991 234.0 159.0 152.0 142.0 140.0 54.0
-69.098495 -74.06991 234.0 159.0 152.0 142.0 141.0 54.0
-68.69686 -74.06991 234.0 159.0 152.0 142.0 142.0 54.0
-68.295235 -74.06991 234.0 159.0 152.0 142.0 143.0 54.0
-67.8936 -74.06991 234.0 160.0 153.0 143.0 144.0 54.0
-67.49197 -74.06991 234.0 160.0 153.0 143.0 145.0 54.0
-67.09034 -74.06991 234.0 160.0 153.0 143.0 146.0 54.0
-66.688705 -74.06991 234.0 160.0 153.0 143.0 147.0 54.0
-66.28708 -74.06991 234.0 160.0 153.0 143.0 148.0 54.0
-65.885445 -74.06991 234.0 160.0 153.0 143.0 149.0 54.0
-65.48382 -74.06991 234.0 160.0 153.0 143.0 150.0 54.0
-65.082184 -74.06991 234.0 160.0 153.0 143.0 151.0 54.0
-64.68055 -74.06991 234.0 160.0 153.0 143.0 152.0 54.0
-64.27892 -74.06991 234.0 160.0 153.0 143.0 153.0 54.0
-63.877293 -74.06991 234.0 160.0 153.0 143.0 154.0 54.0
-63.47566 -74.06991 234.0 160.0 153.0 143.0 155.0 54.0
-63.074028 -74.06991 234.0 160.0 153.0 143.0 156.0 54.0
-62.672398 -74.06991 234.0 160.0 153.0 143.0 157.0 54.0
-62.270767 -74.06991 234.0 160.0 153.0 143.0 158.0 54.0
-61.869137 -74.06991 234.0 160.0 153.0 143.0 159.0 54.0
-61.99287 -74.70299 236.0 160.0 153.0 143.0 160.0 54.0
-61.587807 -74.70299 236.0 160.0 153.0 143.0 161.0 54.0
-61.182743 -74.70299 236.0 160.0 153.0 143.0 162.0 54.0
-60.77768 -74.70299 236.0 160.0 153.0 143.0 163.0 54.0
-60.372616 -74.70299 236.0 160.0 153.0 143.0 164.0 54.0
-59.967552 -74.70299 236.0 160.0 153.0 143.0 165.0 54.0
-59.56249 -74.70299 236.0 160.0 153.0 143.0 166.0 54.0
-59.157425 -74.70299 236.0 160.0 153.0 143.0 167.0 54.0
-59.00131 -75.01952 237.0 160.0 153.0 143.0 168.0 54.0
-58.594532 -75.01952 237.0 160.0 153.0 143.0 169.0 54.0
-58.18775 -75.01952 237.0 160.0 153.0 143.0 170.0 54.0
-57.78097 -75.01952 237.0 160.0 153.0 143.0 171.0 54.0
-57.37419 -75.01952 237.0 160.0 153.0 143.0 172.0 54.0
-56.96741 -75.01952 237.0 160.0 153.0 143.0 173.0 54.0
-56.56063 -75.01952 237.0 160.0 153.0 143.0 174.0 54.0
-56.15385 -75.01952 237.0 160.0 153.0 143.0 175.0 54.0
-55.74707 -75.01952 237.0 161.0 152.0 143.0 176.0 54.0
-55.34029 -75.01952 237.0 161.0 152.0 143.0 177.0 54.0
-55.1653 -75.33606 238.0 161.0 152.0 143.0 178.0 54.0
-54.98687 -75.652596 239.0 161.0 152.0 143.0 179.0 54.0
-54.80501 -75.96914 240.0 161.0 152.0 143.0 180.0 54.0
-54.61972 -76.285675 241.0 161.0 152.0 143.0 181.0 54.0
-54.206078 -76.285675 241.0 161.0 152.0 143.0 182.0 54.0
-53.79243 -76.285675 241.0 161.0 152.0 143.0 183.0 54.0
-54.48623 -77.86836 246.0 160.0 151.0 142.0 184.0 54.0
-54.943092 -79.13452 250.0 160.0 151.0 142.0 185.0 54.0
-55.386223 -80.40067 254.0 160.0 151.0 142.0 186.0 54.0
-55.166603 -80.71721 255.0 160.0 151.0 142.0 187.0 54.0
-54.728928 -80.71721 255.0 160.0 151.0 142.0 188.0 54.0
-54.078346 -80.40067 254.0 160.0 151.0 142.0 189.0 54.0
-53.642387 -80.40067 254.0 160.0 151.0 142.0 190.0 54.0
-53.415905 -80.71721 255.0 160.0 151.0 142.0 191.0 54.0
-52.97823 -80.71721 255.0 161.0 152.0 143.0 192.0 54.0
-52.540554 -80.71721 255.0 161.0 152.0 143.0 193.0 54.0
-52.10288 -80.71721 255.0 161.0 152.0 143.0 194.0 54.0
-51.665207 -80.71721 255.0 161.0 152.0 143.0 195.0 54.0
-51.22753 -80.71721 255.0 161.0 152.0 143.0 196.0 54.0
-50.789856 -80.71721 255.0 161.0 152.0 143.0 197.0 54.0
-50.35218 -80.71721 255.0 161.0 152.0 143.0 198.0 54.0
-49.914505 -80.71721 255.0 161.0 152.0 143.0 199.0 54.0
-49.476833 -80.71721 255.0 161.0 152.0 143.0 200.0 54.0
-49.039158 -80.71721 255.0 161.0 152.0 143.0 201.0 54.0
-48.601482 -80.71721 255.0 161.0 152.0 143.0 202.0 54.0
-48.163807 -80.71721 255.0 161.0 152.0 143.0 203.0 54.0
-47.72613 -80.71721 255.0 161.0 152.0 143.0 204.0 54.0
-47.28846 -80.71721 255.0 161.0 152.0 143.0 205.0 54.0
-46.850784 -80.71721 255.0 161.0 152.0 143.0 206.0 54.0
-46.41311 -80.71721 255.0 161.0 152.0 143.0 207.0 54.0
-45.975433 -80.71721 255.0 160.0 153.0 145.0 208.0 54.0
-45.537758 -80.71721 255.0 160.0 153.0 145.0 209.0 54.0
-45.100086 -80.71721 255.0 160.0 153.0 145.0 210.0 54.0
-44.66241 -80.71721 255.0 160.0 153.0 145.0 211.0 54.0
-44.224735 -80.71721 255.0 161.0 154.0 146.0 212.0 54.0
-43.78706 -80.71721 255.0 161.0 154.0 146.0 213.0 54.0
-43.349384 -80.71721 255.0 162.0 155.0 147.0 214.0 54.0
-42.911713 -80.71721 255.0 162.0 155.0 147.0 215.0 54.0
-42.474037 -80.71721 255.0 161.0 154.0 146.0 216.0 54.0
-42.03636 -80.71721 255.0 161.0 154.0 146.0 217.0 54.0
-41.598686 -80.71721 255.0 162.0 155.0 147.0 218.0 54.0
-41.16101 -80.71721 255.0 162.0 155.0 147.0 219.0 54.0
-40.72334 -80.71721 255.0 162.0 155.0 147.0 220.0 54.0
-40.285664 -80.71721 255.0 161.0 154.0 146.0 221.0 54.0
-39.84799 -80.71721 255.0 160.0 153.0 145.0 222.0 54.0
-39.410313 -80.71721 255.0 159.0 152.0 144.0 223.0 54.0
-38.972637 -80.71721 255.0 161.0 154.0 146.0 224.0 54.0
-38.534966 -80.71721 255.0 161.0 154.0 146.0 225.0 54.0
-38.09729 -80.71721 255.0 161.0 154.0 146.0 226.0 54.0
-37.659615 -80.71721 255.0 161.0 154.0 146.0 227.0 54.0
-37.22194 -80.71721 255.0 161.0 154.0 146.0 228.0 54.0
-36.784264 -80.71721 255.0 161.0 154.0 146.0 229.0 54.0
-36.346592 -80.71721 255.0 161.0 154.0 146.0 230.0 54.0
-35.908916 -80.71721 255.0 161.0 154.0 146.0 231.0 54.0
-35.47124 -80.71721 255.0 160.0 153.0 145.0 232.0 54.0
-35.033566 -80.71721 255.0 160.0 153.0 145.0 233.0 54.0
-34.59589 -80.71721 255.0 160.0 153.0 145.0 234.0 54.0
-34.15822 -80.71721 255.0 161.0 154.0 146.0 235.0 54.0
-33.720543 -80.71721 255.0 161.0 154.0 146.0 236.0 54.0
-33.282867 -80.71721 255.0 162.0 155.0 147.0 237.0 54.0
-32.845192 -80.71721 255.0 162.0 155.0 147.0 238.0 54.0
-32.407516 -80.71721 255.0 162.0 155.0 147.0 239.0 54.0
-31.969843 -80.71721 255.0 160.0 153.0 145.0 240.0 54.0
-31.53217 -80.71721 255.0 161.0 154.0 146.0 241.0 54.0
-31.094494 -80.71721 255.0 161.0 154.0 146.0 242.0 54.0
-30.656818 -80.71721 255.0 162.0 155.0 147.0 243.0 54.0
-30.219145 -80.71721 255.0 162.0 155.0 147.0 244.0 54.0
-29.78147 -80.71721 255.0 161.0 154.0 146.0 245.0 54.0
-29.343796 -80.71721 255.0 161.0 154.0 146.0 246.0 54.0
-28.90612 -80.71721 255.0 160.0 153.0 145.0 247.0 54.0
-28.468447 -80.71721 255.0 160.0 153.0 145.0 248.0 54.0
-28.030771 -80.71721 255.0 160.0 153.0 145.0 249.0 54.0
-27.593096 -80.71721 255.0 160.0 153.0 145.0 250.0 54.0
-27.155422 -80.71721 255.0 161.0 154.0 146.0 251.0 54.0
-26.717747 -80.71721 255.0 161.0 154.0 146.0 252.0 54.0
-26.280073 -80.71721 255.0 162.0 155.0 147.0 253.0 54.0
-25.842398 -80.71721 255.0 162.0 155.0 147.0 254.0 54.0
-25.404722 -80.71721 255.0 162.0 155.0 147.0 255.0 54.0
-137.01178 -80.27959 255.0 158.0 152.0 140.0 0.0 55.0
-136.5741 -80.27959 255.0 158.0 152.0 140.0 1.0 55.0
-136.13643 -80.27959 255.0 159.0 153.0 141.0 2.0 55.0
-135.69875 -80.27959 255.0 160.0 154.0 142.0 3.0 55.0
-135.26108 -80.27959 255.0 161.0 155.0 143.0 4.0 55.0
-134.8234 -80.27959 255.0 162.0 156.0 144.0 5.0 55.0
-134.38573 -80.27959 255.0 163.0 157.0 145.0 6.0 55.0
-133.94804 -80.27959 255.0 164.0 158.0 146.0 7.0 55.0
-133.51038 -80.27959 255.0 165.0 159.0 147.0 8.0 55.0
-133.07271 -80.27959 255.0 164.0 158.0 146.0 9.0 55.0
-132.63503 -80.27959 255.0 163.0 157.0 145.0 10.0 55.0
-132.19736 -80.27959 255.0 162.0 156.0 144.0 11.0 55.0
-131.75967 -80.27959 255.0 162.0 156.0 144.0 12.0 55.0
-131.322 -80.27959 255.0 162.0 156.0 144.0 13.0 55.0
-130.88432 -80.27959 255.0 162.0 156.0 144.0 14.0 55.0
-130.44666 -80.27959 255.0 163.0 157.0 145.0 15.0 55.0
-130.00897 -80.27959 255.0 162.0 155.0 145.0 16.0 55.0
-129.5713 -80.27959 255.0 162.0 155.0 145.0 17.0 55.0
-129.13362 -80.27959 255.0 162.0 155.0 145.0 18.0 55.0
-128.69595 -80.27959 255.0 161.0 154.0 144.0 19.0 55.0
-128.25829 -80.27959 255.0 161.0 154.0 144.0 20.0 55.0
-127.8206 -80.27959 255.0 161.0 154.0 144.0 21.0 55.0
-127.38293 -80.27959 255.0 160.0 153.0 143.0 22.0 55.0
-126.94525 -80.27959 255.0 160.0 153.0 143.0 23.0 55.0
-126.50758 -80.27959 255.0 162.0 155.0 145.0 24.0 55.0
-126.06991 -80.27959 255.0 162.0 155.0 145.0 25.0 55.0
-125.63223 -80.27959 255.0 162.0 155.0 145.0 26.0 55.0
-125.19456 -80.27959 255.0 161.0 154.0 144.0 27.0 55.0
-124.75688 -80.27959 255.0 161.0 154.0 144.0 28.0 55.0
-124.31921 -80.27959 255.0 160.0 153.0 143.0 29.0 55.0
-123.88153 -80.27959 255.0 160.0 153.0 143.0 30.0 55.0
-123.443855 -80.27959 255.0 160.0 153.0 143.0 31.0 55.0
-123.00618 -80.27959 255.0 161.0 154.0 144.0 32.0 55.0
-122.568504 -80.27959 255.0 161.0 154.0 144.0 33.0 55.0
-122.13084 -80.27959 255.0 159.0 152.0 142.0 34.0 55.0
-121.69316 -80.27959 255.0 159.0 152.0 142.0 35.0 55.0
-121.255486 -80.27959 255.0 159.0 152.0 142.0 36.0 55.0
-120.81781 -80.27959 255.0 159.0 152.0 142.0 37.0 55.0
-120.380135 -80.27959 255.0 161.0 154.0 144.0 38.0 55.0
-119.94246 -80.27959 255.0 161.0 154.0 144.0 39.0 55.0
-119.50478 -80.27959 255.0 163.0 156.0 146.0 40.0 55.0
-119.06711 -80.27959 255.0 163.0 156.0 146.0 41.0 55.0
-118.62943 -80.27959 255.0 163.0 156.0 146.0 42.0 55.0
-118.19176 -80.27959 255.0 163.0 156.0 146.0 43.0 55.0
-117.75409 -80.27959 255.0 163.0 156.0 146.0 44.0 55.0
-117.316414 -80.27959 255.0 163.0 156.0 146.0 45.0 55.0
-116.87874 -80.27959 255.0 163.0 156.0 146.0 46.0 55.0
-116.44106 -80.27959 255.0 163.0 156.0 146.0 47.0 55.0
-116.00339 -80.27959 255.0 162.0 155.0 145.0 48.0 55.0
-115.56571 -80.27959 255.0 162.0 155.0 145.0 49.0 55.0
-115.12804 -80.27959 255.0 162.0 155.0 145.0 50.0 55.0
-114.69036 -80.27959 255.0 161.0 154.0 144.0 51.0 55.0
-114.252686 -80.27959 255.0 161.0 154.0 144.0 52.0 55.0
-113.81501 -80.27959 255.0 160.0 153.0 143.0 53.0 55.0
-113.37734 -80.27959 255.0 160.0 153.0 143.0 54.0 55.0
-112.93967 -80.27959 255.0 160.0 153.0 143.0 55.0 55.0
-112.50199 -80.27959 255.0 161.0 154.0 144.0 56.0 55.0
-112.064316 -80.27959 255.0 162.0 155.0 145.0 57.0 55.0
-111.62664 -80.27959 255.0 162.0 155.0 145.0 58.0 55.0
-111.188965 -80.27959 255.0 162.0 155.0 145.0 59.0 55.0
-110.75129 -80.27959 255.0 163.0 156.0 146.0 60.0 55.0
-110.313614 -80.27959 255.0 164.0 157.0 147.0 61.0 55.0
-109.87594 -80.27959 255.0 164.0 157.0 147.0 62.0 55.0
-109.43827 -80.27959 255.0 164.0 157.0 147.0 63.0 55.0
-109.000595 -80.27959 255.0 162.0 155.0 145.0 64.0 55.0
-108.56292 -80.27959 255.0 162.0 155.0 145.0 65.0 55.0
-108.125244 -80.27959 255.0 162.0 155.0 145.0 66.0 55.0
-105.99835 -79.020294 251.0 162.0 155.0 145.0 67.0 55.0
-103.044014 -77.13136 245.0 162.0 155.0 145.0 68.0 55.0
-101.36689 -76.1869 242.0 162.0 155.0 145.0 69.0 55.0
-100.53437 -75.87208 241.0 162.0 155.0 145.0 70.0 55.0
-100.95161 -76.501724 243.0 162.0 155.0 145.0 71.0 55.0
-99.29336 -75.55726 240.0 163.0 156.0 146.0 72.0 55.0
-98.88143 -75.55726 240.0 162.0 155.0 145.0 73.0 55.0
-98.05921 -75.24243 239.0 162.0 155.0 145.0 74.0 55.0
-97.240425 -74.92761 238.0 162.0 155.0 145.0 75.0 55.0
-96.83193 -74.92761 238.0 161.0 154.0 144.0 76.0 55.0
-96.018295 -74.61279 237.0 160.0 153.0 143.0 77.0 55.0
-95.20809 -74.297966 236.0 160.0 153.0 143.0 78.0 55.0
-94.803024 -74.297966 236.0 160.0 153.0 143.0 79.0 55.0
-94.79795 -74.61279 237.0 161.0 154.0 144.0 80.0 55.0
-94.391174 -74.61279 237.0 161.0 154.0 144.0 81.0 55.0
-93.98439 -74.61279 237.0 161.0 154.0 144.0 82.0 55.0
-93.577614 -74.61279 237.0 161.0 154.0 144.0 83.0 55.0
-93.17083 -74.61279 237.0 161.0 154.0 144.0 84.0 55.0
-92.76405 -74.61279 237.0 161.0 154.0 144.0 85.0 55.0
-92.35727 -74.61279 237.0 161.0 154.0 144.0 86.0 55.0
-91.95049 -74.61279 237.0 161.0 154.0 144.0 87.0 55.0
-90.771194 -73.98315 235.0 160.0 153.0 143.0 88.0 55.0
-90.36784 -73.98315 235.0 160.0 153.0 143.0 89.0 55.0
-89.9645 -73.98315 235.0 160.0 153.0 143.0 90.0 55.0
-89.56115 -73.98315 235.0 160.0 153.0 143.0 91.0 55.0
-89.1578 -73.98315 235.0 160.0 153.0 143.0 92.0 55.0
-88.754456 -73.98315 235.0 160.0 153.0 143.0 93.0 55.0
-88.351105 -73.98315 235.0 160.0 153.0 143.0 94.0 55.0
-87.94776 -73.98315 235.0 160.0 153.0 143.0 95.0 55.0
-87.17188 -73.66833 234.0 161.0 154.0 144.0 96.0 55.0
-86.770256 -73.66833 234.0 160.0 153.0 143.0 97.0 55.0
-86.36862 -73.66833 234.0 160.0 153.0 143.0 98.0 55.0
-85.96699 -73.66833 234.0 160.0 153.0 143.0 99.0 55.0
-85.56536 -73.66833 234.0 159.0 152.0 142.0 100.0 55.0
-85.16373 -73.66833 234.0 159.0 152.0 142.0 101.0 55.0
-84.7621 -73.66833 234.0 159.0 152.0 142.0 102.0 55.0
-84.360466 -73.66833 234.0 158.0 151.0 141.0 103.0 55.0
-83.60004 -73.3535 233.0 159.0 152.0 142.0 104.0 55.0
-83.20013 -73.3535 233.0 160.0 153.0 143.0 105.0 55.0
-82.80021 -73.3535 233.0 161.0 154.0 144.0 106.0 55.0
-82.40029 -73.3535 233.0 162.0 155.0 145.0 107.0 55.0
-82.00038 -73.3535 233.0 162.0 155.0 145.0 108.0 55.0
-81.600464 -73.3535 233.0 161.0 154.0 144.0 109.0 55.0
-81.200554 -73.3535 233.0 160.0 153.0 143.0 110.0 55.0
-80.80064 -73.3535 233.0 159.0 152.0 142.0 111.0 55.0
-80.74579 -73.66833 234.0 160.0 151.0 142.0 112.0 55.0
-80.34416 -73.66833 234.0 161.0 152.0 143.0 113.0 55.0
-79.94253 -73.66833 234.0 162.0 153.0 144.0 114.0 55.0
-79.54089 -73.66833 234.0 162.0 153.0 144.0 115.0 55.0
-79.13927 -73.66833 234.0 162.0 153.0 144.0 116.0 55.0
-78.73763 -73.66833 234.0 160.0 151.0 142.0 117.0 55.0
-78.336006 -73.66833 234.0 159.0 150.0 141.0 118.0 55.0
-77.93437 -73.66833 234.0 158.0 149.0 140.0 119.0 55.0
-77.532745 -73.66833 234.0 158.0 149.0 140.0 120.0 55.0
-77.13111 -73.66833 234.0 159.0 150.0 141.0 121.0 55.0
-76.72948 -73.66833 234.0 159.0 150.0 141.0 122.0 55.0
-76.32785 -73.66833 234.0 159.0 150.0 141.0 123.0 55.0
-75.926216 -73.66833 234.0 160.0 151.0 142.0 124.0 55.0
-75.52459 -73.66833 234.0 161.0 152.0 143.0 125.0 55.0
-75.122955 -73.66833 234.0 161.0 152.0 143.0 126.0 55.0
-74.72133 -73.66833 234.0 161.0 152.0 143.0 127.0 55.0
-74.319695 -73.66833 234.0 159.0 152.0 142.0 128.0 55.0
-73.91806 -73.66833 234.0 160.0 153.0 143.0 129.0 55.0
-73.51643 -73.66833 234.0 160.0 153.0 143.0 130.0 55.0
-73.1148 -73.66833 234.0 160.0 153.0 143.0 131.0 55.0
-72.71317 -73.66833 234.0 161.0 154.0 144.0 132.0 55.0
-72.31154 -73.66833 234.0 162.0 155.0 145.0 133.0 55.0
-71.90991 -73.66833 234.0 162.0 155.0 145.0 134.0 55.0
-71.50828 -73.66833 234.0 162.0 155.0 145.0 135.0 55.0
-70.80277 -73.3535 233.0 159.0 152.0 142.0 136.0 55.0
-70.402855 -73.3535 233.0 159.0 152.0 142.0 137.0 55.0
-70.002945 -73.3535 233.0 159.0 152.0 142.0 138.0 55.0
-69.60303 -73.3535 233.0 159.0 152.0 142.0 139.0 55.0
-69.20312 -73.3535 233.0 159.0 152.0 142.0 140.0 55.0
-68.8032 -73.3535 233.0 159.0 152.0 142.0 141.0 55.0
-68.40328 -73.3535 233.0 159.0 152.0 142.0 142.0 55.0
-68.00337 -73.3535 233.0 159.0 152.0 142.0 143.0 55.0
-67.603455 -73.3535 233.0 161.0 154.0 144.0 144.0 55.0
-67.203545 -73.3535 233.0 161.0 154.0 144.0 145.0 55.0
-66.80363 -73.3535 233.0 161.0 154.0 144.0 146.0 55.0
-66.40371 -73.3535 233.0 161.0 154.0 144.0 147.0 55.0
-66.0038 -73.3535 233.0 161.0 154.0 144.0 148.0 55.0
-65.60388 -73.3535 233.0 161.0 154.0 144.0 149.0 55.0
-65.20397 -73.3535 233.0 161.0 154.0 144.0 150.0 55.0
-64.804054 -73.3535 233.0 161.0 154.0 144.0 151.0 55.0
-64.68055 -73.66833 234.0 159.0 152.0 142.0 152.0 55.0
-64.27892 -73.66833 234.0 159.0 152.0 142.0 153.0 55.0
-63.877293 -73.66833 234.0 159.0 152.0 142.0 154.0 55.0
-63.47566 -73.66833 234.0 159.0 152.0 142.0 155.0 55.0
-63.074028 -73.66833 234.0 159.0 152.0 142.0 156.0 55.0
-62.672398 -73.66833 234.0 159.0 152.0 142.0 157.0 55.0
-62.270767 -73.66833 234.0 159.0 152.0 142.0 158.0 55.0
-61.869137 -73.66833 234.0 159.0 152.0 142.0 159.0 55.0
-61.99287 -74.297966 236.0 160.0 153.0 143.0 160.0 55.0
-61.587807 -74.297966 236.0 160.0 153.0 143.0 161.0 55.0
-61.182743 -74.297966 236.0 160.0 153.0 143.0 162.0 55.0
-60.77768 -74.297966 236.0 160.0 153.0 143.0 163.0 55.0
-60.372616 -74.297966 236.0 160.0 153.0 143.0 164.0 55.0
-59.967552 -74.297966 236.0 160.0 153.0 143.0 165.0 55.0
-59.56249 -74.297966 236.0 160.0 153.0 143.0 166.0 55.0
-59.157425 -74.297966 236.0 160.0 153.0 143.0 167.0 55.0
-59.00131 -74.61279 237.0 160.0 153.0 143.0 168.0 55.0
-58.594532 -74.61279 237.0 160.0 153.0 143.0 169.0 55.0
-58.18775 -74.61279 237.0 160.0 153.0 143.0 170.0 55.0
-57.78097 -74.61279 237.0 160.0 153.0 143.0 171.0 55.0
-57.37419 -74.61279 237.0 160.0 153.0 143.0 172.0 55.0
-56.96741 -74.61279 237.0 160.0 153.0 143.0 173.0 55.0
-56.56063 -74.61279 237.0 160.0 153.0 143.0 174.0 55.0
-56.15385 -74.61279 237.0 160.0 153.0 143.0 175.0 55.0
-55.74707 -74.61279 237.0 161.0 152.0 143.0 176.0 55.0
-55.34029 -74.61279 237.0 161.0 152.0 143.0 177.0 55.0
-54.93351 -74.61279 237.0 161.0 152.0 143.0 178.0 55.0
-54.98687 -75.24243 239.0 161.0 152.0 143.0 179.0 55.0
-55.033367 -75.87208 241.0 161.0 152.0 143.0 180.0 55.0
-54.84636 -76.1869 242.0 161.0 152.0 143.0 181.0 55.0
-54.430996 -76.1869 242.0 161.0 152.0 143.0 182.0 55.0
-54.015636 -76.1869 242.0 161.0 152.0 143.0 183.0 55.0
-54.26474 -77.13136 245.0 160.0 151.0 142.0 184.0 55.0
-54.72332 -78.390656 249.0 160.0 151.0 142.0 185.0 55.0
-55.386223 -79.96476 254.0 160.0 151.0 142.0 186.0 55.0
-55.166603 -80.27959 255.0 160.0 151.0 142.0 187.0 55.0
-54.728928 -80.27959 255.0 160.0 151.0 142.0 188.0 55.0
-54.078346 -79.96476 254.0 160.0 151.0 142.0 189.0 55.0
-53.85358 -80.27959 255.0 160.0 151.0 142.0 190.0 55.0
-53.415905 -80.27959 255.0 160.0 151.0 142.0 191.0 55.0
-52.97823 -80.27959 255.0 161.0 152.0 143.0 192.0 55.0
-52.540554 -80.27959 255.0 161.0 152.0 143.0 193.0 55.0
-52.10288 -80.27959 255.0 161.0 152.0 143.0 194.0 55.0
-51.665207 -80.27959 255.0 161.0 152.0 143.0 195.0 55.0
-51.22753 -80.27959 255.0 161.0 152.0 143.0 196.0 55.0
-50.789856 -80.27959 255.0 161.0 152.0 143.0 197.0 55.0
-50.35218 -80.27959 255.0 161.0 152.0 143.0 198.0 55.0
-49.914505 -80.27959 255.0 161.0 152.0 143.0 199.0 55.0
-49.476833 -80.27959 255.0 161.0 152.0 143.0 200.0 55.0
-49.039158 -80.27959 255.0 161.0 152.0 143.0 201.0 55.0
-48.601482 -80.27959 255.0 161.0 152.0 143.0 202.0 55.0
-48.163807 -80.27959 255.0 161.0 152.0 143.0 203.0 55.0
-47.72613 -80.27959 255.0 161.0 152.0 143.0 204.0 55.0
-47.28846 -80.27959 255.0 161.0 152.0 143.0 205.0 55.0
-46.850784 -80.27959 255.0 161.0 152.0 143.0 206.0 55.0
-46.41311 -80.27959 255.0 161.0 152.0 143.0 207.0 55.0
-45.975433 -80.27959 255.0 160.0 153.0 145.0 208.0 55.0
-45.537758 -80.27959 255.0 160.0 153.0 145.0 209.0 55.0
-45.100086 -80.27959 255.0 161.0 154.0 146.0 210.0 55.0
-44.66241 -80.27959 255.0 161.0 154.0 146.0 211.0 55.0
-44.224735 -80.27959 255.0 161.0 154.0 146.0 212.0 55.0
-43.78706 -80.27959 255.0 162.0 155.0 147.0 213.0 55.0
-43.349384 -80.27959 255.0 162.0 155.0 147.0 214.0 55.0
-42.911713 -80.27959 255.0 162.0 155.0 147.0 215.0 55.0
-42.474037 -80.27959 255.0 161.0 154.0 146.0 216.0 55.0
-42.03636 -80.27959 255.0 162.0 155.0 147.0 217.0 55.0
-41.598686 -80.27959 255.0 162.0 155.0 147.0 218.0 55.0
-41.16101 -80.27959 255.0 162.0 155.0 147.0 219.0 55.0
-40.72334 -80.27959 255.0 162.0 155.0 147.0 220.0 55.0
-40.285664 -80.27959 255.0 161.0 154.0 146.0 221.0 55.0
-39.84799 -80.27959 255.0 159.0 152.0 144.0 222.0 55.0
-39.410313 -80.27959 255.0 159.0 152.0 144.0 223.0 55.0
-38.972637 -80.27959 255.0 160.0 153.0 145.0 224.0 55.0
-38.534966 -80.27959 255.0 160.0 153.0 145.0 225.0 55.0
-38.09729 -80.27959 255.0 160.0 153.0 145.0 226.0 55.0
-37.659615 -80.27959 255.0 160.0 153.0 145.0 227.0 55.0
-37.22194 -80.27959 255.0 160.0 153.0 145.0 228.0 55.0
-36.784264 -80.27959 255.0 160.0 153.0 145.0 229.0 55.0
-36.346592 -80.27959 255.0 160.0 153.0 145.0 230.0 55.0
-35.908916 -80.27959 255.0 160.0 153.0 145.0 231.0 55.0
-35.47124 -80.27959 255.0 160.0 153.0 145.0 232.0 55.0
-35.033566 -80.27959 255.0 160.0 153.0 145.0 233.0 55.0
-34.59589 -80.27959 255.0 160.0 153.0 145.0 234.0 55.0
-34.15822 -80.27959 255.0 161.0 154.0 146.0 235.0 55.0
-33.720543 -80.27959 255.0 161.0 154.0 146.0 236.0 55.0
-33.282867 -80.27959 255.0 162.0 155.0 147.0 237.0 55.0
-32.845192 -80.27959 255.0 162.0 155.0 147.0 238.0 55.0
-32.407516 -80.27959 255.0 162.0 155.0 147.0 239.0 55.0
-31.969843 -80.27959 255.0 160.0 153.0 145.0 240.0 55.0
-31.53217 -80.27959 255.0 160.0 153.0 145.0 241.0 55.0
-31.094494 -80.27959 255.0 162.0 155.0 147.0 242.0 55.0
-30.656818 -80.27959 255.0 162.0 155.0 147.0 243.0 55.0
-30.219145 -80.27959 255.0 162.0 155.0 147.0 244.0 55.0
-29.78147 -80.27959 255.0 162.0 155.0 147.0 245.0 55.0
-29.343796 -80.27959 255.0 160.0 153.0 145.0 246.0 55.0
-28.90612 -80.27959 255.0 160.0 153.0 145.0 247.0 55.0
-28.468447 -80.27959 255.0 160.0 153.0 145.0 248.0 55.0
-28.030771 -80.27959 255.0 160.0 153.0 145.0 249.0 55.0
-27.593096 -80.27959 255.0 160.0 153.0 145.0 250.0 55.0
-27.155422 -80.27959 255.0 161.0 154.0 146.0 251.0 55.0
-26.717747 -80.27959 255.0 161.0 154.0 146.0 252.0 55.0
-26.280073 -80.27959 255.0 162.0 155.0 147.0 253.0 55.0
-25.842398 -80.27959 255.0 162.0 155.0 147.0 254.0 55.0
-25.404722 -80.27959 255.0 162.0 155.0 147.0 255.0 55.0
-137.01178 -79.84196 255.0 162.0 156.0 144.0 0.0 56.0
-136.5741 -79.84196 255.0 162.0 156.0 144.0 1.0 56.0
-136.13643 -79.84196 255.0 162.0 156.0 144.0 2.0 56.0
-135.69875 -79.84196 255.0 162.0 156.0 144.0 3.0 56.0
-135.26108 -79.84196 255.0 162.0 156.0 144.0 4.0 56.0
-134.8234 -79.84196 255.0 162.0 156.0 144.0 5.0 56.0
-134.38573 -79.84196 255.0 162.0 156.0 144.0 6.0 56.0
-133.94804 -79.84196 255.0 162.0 156.0 144.0 7.0 56.0
-133.51038 -79.84196 255.0 160.0 154.0 142.0 8.0 56.0
-133.07271 -79.84196 255.0 161.0 155.0 143.0 9.0 56.0
-132.63503 -79.84196 255.0 161.0 155.0 143.0 10.0 56.0
-132.19736 -79.84196 255.0 161.0 155.0 143.0 11.0 56.0
-131.75967 -79.84196 255.0 162.0 156.0 144.0 12.0 56.0
-131.322 -79.84196 255.0 163.0 157.0 145.0 13.0 56.0
-130.88432 -79.84196 255.0 163.0 157.0 145.0 14.0 56.0
-130.44666 -79.84196 255.0 163.0 157.0 145.0 15.0 56.0
-130.00897 -79.84196 255.0 164.0 157.0 147.0 16.0 56.0
-129.5713 -79.84196 255.0 163.0 156.0 146.0 17.0 56.0
-129.13362 -79.84196 255.0 162.0 155.0 145.0 18.0 56.0
-128.69595 -79.84196 255.0 161.0 154.0 144.0 19.0 56.0
-128.25829 -79.84196 255.0 161.0 154.0 144.0 20.0 56.0
-127.8206 -79.84196 255.0 161.0 154.0 144.0 21.0 56.0
-127.38293 -79.84196 255.0 161.0 154.0 144.0 22.0 56.0
-126.94525 -79.84196 255.0 162.0 155.0 145.0 23.0 56.0
-126.50758 -79.84196 255.0 160.0 153.0 143.0 24.0 56.0
-126.06991 -79.84196 255.0 160.0 153.0 143.0 25.0 56.0
-125.63223 -79.84196 255.0 160.0 153.0 143.0 26.0 56.0
-125.19456 -79.84196 255.0 160.0 153.0 143.0 27.0 56.0
-124.75688 -79.84196 255.0 160.0 153.0 143.0 28.0 56.0
-124.31921 -79.84196 255.0 160.0 153.0 143.0 29.0 56.0
-123.88153 -79.84196 255.0 160.0 153.0 143.0 30.0 56.0
-123.443855 -79.84196 255.0 160.0 153.0 143.0 31.0 56.0
-123.00618 -79.84196 255.0 160.0 153.0 143.0 32.0 56.0
-122.568504 -79.84196 255.0 159.0 152.0 142.0 33.0 56.0
-122.13084 -79.84196 255.0 159.0 152.0 142.0 34.0 56.0
-121.69316 -79.84196 255.0 159.0 152.0 142.0 35.0 56.0
-121.255486 -79.84196 255.0 160.0 153.0 143.0 36.0 56.0
-120.81781 -79.84196 255.0 161.0 154.0 144.0 37.0 56.0
-120.380135 -79.84196 255.0 162.0 155.0 145.0 38.0 56.0
-119.94246 -79.84196 255.0 163.0 156.0 146.0 39.0 56.0
-119.50478 -79.84196 255.0 161.0 154.0 144.0 40.0 56.0
-119.06711 -79.84196 255.0 161.0 154.0 144.0 41.0 56.0
-118.62943 -79.84196 255.0 162.0 155.0 145.0 42.0 56.0
-118.19176 -79.84196 255.0 162.0 155.0 145.0 43.0 56.0
-117.75409 -79.84196 255.0 162.0 155.0 145.0 44.0 56.0
-117.316414 -79.84196 255.0 162.0 155.0 145.0 45.0 56.0
-116.87874 -79.84196 255.0 162.0 155.0 145.0 46.0 56.0
-116.44106 -79.84196 255.0 162.0 155.0 145.0 47.0 56.0
-116.00339 -79.84196 255.0 161.0 154.0 144.0 48.0 56.0
-115.56571 -79.84196 255.0 161.0 154.0 144.0 49.0 56.0
-115.12804 -79.84196 255.0 161.0 154.0 144.0 50.0 56.0
-114.69036 -79.84196 255.0 161.0 154.0 144.0 51.0 56.0
-114.252686 -79.84196 255.0 161.0 154.0 144.0 52.0 56.0
-113.81501 -79.84196 255.0 161.0 154.0 144.0 53.0 56.0
-113.37734 -79.84196 255.0 161.0 154.0 144.0 54.0 56.0
-112.93967 -79.84196 255.0 161.0 154.0 144.0 55.0 56.0
-112.50199 -79.84196 255.0 162.0 155.0 145.0 56.0 56.0
-112.064316 -79.84196 255.0 162.0 155.0 145.0 57.0 56.0
-111.62664 -79.84196 255.0 162.0 155.0 145.0 58.0 56.0
-111.188965 -79.84196 255.0 162.0 155.0 145.0 59.0 56.0
-110.75129 -79.84196 255.0 162.0 155.0 145.0 60.0 56.0
-110.313614 -79.84196 255.0 162.0 155.0 145.0 61.0 56.0
-109.87594 -79.84196 255.0 162.0 155.0 145.0 62.0 56.0
-109.43827 -79.84196 255.0 162.0 155.0 145.0 63.0 56.0
-108.573135 -79.528854 254.0 162.0 155.0 145.0 64.0 56.0
-108.56292 -79.84196 255.0 162.0 155.0 145.0 65.0 56.0
-107.701225 -79.528854 254.0 162.0 155.0 145.0 66.0 56.0
-105.57605 -78.27643 250.0 162.0 155.0 145.0 67.0 56.0
-102.62343 -76.3978 244.0 162.0 155.0 145.0 68.0 56.0
-100.94802 -75.45848 241.0 162.0 155.0 145.0 69.0 56.0
-100.53437 -75.45848 241.0 162.0 155.0 145.0 70.0 56.0
-100.95161 -76.084694 243.0 162.0 155.0 145.0 71.0 56.0
-98.87964 -74.83227 239.0 159.0 152.0 142.0 72.0 56.0
-98.46942 -74.83227 239.0 159.0 152.0 142.0 73.0 56.0
-98.05921 -74.83227 239.0 159.0 152.0 142.0 74.0 56.0
-97.240425 -74.519165 238.0 160.0 153.0 143.0 75.0 56.0
-96.83193 -74.519165 238.0 161.0 154.0 144.0 76.0 56.0
-96.42343 -74.519165 238.0 161.0 154.0 144.0 77.0 56.0
-95.61151 -74.206055 237.0 161.0 154.0 144.0 78.0 56.0
-95.204735 -74.206055 237.0 162.0 155.0 145.0 79.0 56.0
-94.79795 -74.206055 237.0 160.0 153.0 143.0 80.0 56.0
-94.391174 -74.206055 237.0 160.0 153.0 143.0 81.0 56.0
-93.98439 -74.206055 237.0 160.0 153.0 143.0 82.0 56.0
-93.18277 -73.89295 236.0 160.0 153.0 143.0 83.0 56.0
-92.77771 -73.89295 236.0 160.0 153.0 143.0 84.0 56.0
-91.98123 -73.57984 235.0 160.0 153.0 143.0 85.0 56.0
-91.57789 -73.57984 235.0 160.0 153.0 143.0 86.0 56.0
-91.17454 -73.57984 235.0 160.0 153.0 143.0 87.0 56.0
-90.771194 -73.57984 235.0 160.0 153.0 143.0 88.0 56.0
-90.36784 -73.57984 235.0 160.0 153.0 143.0 89.0 56.0
-89.9645 -73.57984 235.0 160.0 153.0 143.0 90.0 56.0
-89.56115 -73.57984 235.0 160.0 153.0 143.0 91.0 56.0
-89.1578 -73.57984 235.0 160.0 153.0 143.0 92.0 56.0
-88.754456 -73.57984 235.0 160.0 153.0 143.0 93.0 56.0
-88.351105 -73.57984 235.0 160.0 153.0 143.0 94.0 56.0
-87.94776 -73.57984 235.0 160.0 153.0 143.0 95.0 56.0
-87.54441 -73.57984 235.0 160.0 153.0 143.0 96.0 56.0
-87.14107 -73.57984 235.0 160.0 153.0 143.0 97.0 56.0
-86.73772 -73.57984 235.0 160.0 153.0 143.0 98.0 56.0
-86.33437 -73.57984 235.0 160.0 153.0 143.0 99.0 56.0
-85.93102 -73.57984 235.0 160.0 153.0 143.0 100.0 56.0
-85.52768 -73.57984 235.0 160.0 153.0 143.0 101.0 56.0
-85.12433 -73.57984 235.0 160.0 153.0 143.0 102.0 56.0
-84.720985 -73.57984 235.0 160.0 153.0 143.0 103.0 56.0
-83.60004 -72.953636 233.0 160.0 153.0 143.0 104.0 56.0
-83.20013 -72.953636 233.0 160.0 153.0 143.0 105.0 56.0
-82.80021 -72.953636 233.0 160.0 153.0 143.0 106.0 56.0
-82.40029 -72.953636 233.0 160.0 153.0 143.0 107.0 56.0
-82.00038 -72.953636 233.0 160.0 153.0 143.0 108.0 56.0
-81.600464 -72.953636 233.0 160.0 153.0 143.0 109.0 56.0
-81.200554 -72.953636 233.0 160.0 153.0 143.0 110.0 56.0
-80.80064 -72.953636 233.0 160.0 153.0 143.0 111.0 56.0
-80.40072 -72.953636 233.0 162.0 153.0 144.0 112.0 56.0
-80.00081 -72.953636 233.0 162.0 153.0 144.0 113.0 56.0
-79.60089 -72.953636 233.0 161.0 152.0 143.0 114.0 56.0
-79.20098 -72.953636 233.0 161.0 152.0 143.0 115.0 56.0
-78.80106 -72.953636 233.0 160.0 151.0 142.0 116.0 56.0
-78.401146 -72.953636 233.0 160.0 151.0 142.0 117.0 56.0
-78.001236 -72.953636 233.0 159.0 150.0 141.0 118.0 56.0
-77.60132 -72.953636 233.0 159.0 150.0 141.0 119.0 56.0
-77.20141 -72.953636 233.0 160.0 151.0 142.0 120.0 56.0
-76.80149 -72.953636 233.0 160.0 151.0 142.0 121.0 56.0
-76.40157 -72.953636 233.0 160.0 151.0 142.0 122.0 56.0
-76.00166 -72.953636 233.0 160.0 151.0 142.0 123.0 56.0
-75.601746 -72.953636 233.0 160.0 151.0 142.0 124.0 56.0
-75.201836 -72.953636 233.0 160.0 151.0 142.0 125.0 56.0
-74.80192 -72.953636 233.0 160.0 151.0 142.0 126.0 56.0
-74.402 -72.953636 233.0 160.0 151.0 142.0 127.0 56.0
-74.00209 -72.953636 233.0 157.0 150.0 140.0 128.0 56.0
-73.60217 -72.953636 233.0 157.0 150.0 140.0 129.0 56.0
-73.20226 -72.953636 233.0 158.0 151.0 141.0 130.0 56.0
-72.802345 -72.953636 233.0 158.0 151.0 141.0 131.0 56.0
-72.40243 -72.953636 233.0 159.0 152.0 142.0 132.0 56.0
-72.00252 -72.953636 233.0 159.0 152.0 142.0 133.0 56.0
-71.6026 -72.953636 233.0 160.0 153.0 143.0 134.0 56.0
-71.20269 -72.953636 233.0 160.0 153.0 143.0 135.0 56.0
-70.80277 -72.953636 233.0 160.0 153.0 143.0 136.0 56.0
-70.402855 -72.953636 233.0 160.0 153.0 143.0 137.0 56.0
-70.002945 -72.953636 233.0 160.0 153.0 143.0 138.0 56.0
-69.60303 -72.953636 233.0 160.0 153.0 143.0 139.0 56.0
-69.20312 -72.953636 233.0 160.0 153.0 143.0 140.0 56.0
-68.8032 -72.953636 233.0 160.0 153.0 143.0 141.0 56.0
-68.40328 -72.953636 233.0 160.0 153.0 143.0 142.0 56.0
-68.00337 -72.953636 233.0 160.0 153.0 143.0 143.0 56.0
-68.18375 -73.57984 235.0 160.0 153.0 143.0 144.0 56.0
-67.780396 -73.57984 235.0 160.0 153.0 143.0 145.0 56.0
-67.37705 -73.57984 235.0 160.0 153.0 143.0 146.0 56.0
-66.9737 -73.57984 235.0 160.0 153.0 143.0 147.0 56.0
-66.57036 -73.57984 235.0 160.0 153.0 143.0 148.0 56.0
-66.16701 -73.57984 235.0 160.0 153.0 143.0 149.0 56.0
-65.76366 -73.57984 235.0 160.0 153.0 143.0 150.0 56.0
-65.36031 -73.57984 235.0 160.0 153.0 143.0 151.0 56.0
-64.95696 -73.57984 235.0 159.0 152.0 142.0 152.0 56.0
-64.55362 -73.57984 235.0 159.0 152.0 142.0 153.0 56.0
-64.15027 -73.57984 235.0 159.0 152.0 142.0 154.0 56.0
-63.746925 -73.57984 235.0 159.0 152.0 142.0 155.0 56.0
-63.343575 -73.57984 235.0 159.0 152.0 142.0 156.0 56.0
-62.940228 -73.57984 235.0 159.0 152.0 142.0 157.0 56.0
-62.53688 -73.57984 235.0 159.0 152.0 142.0 158.0 56.0
-62.133533 -73.57984 235.0 159.0 152.0 142.0 159.0 56.0
-61.730186 -73.57984 235.0 160.0 153.0 143.0 160.0 56.0
-61.32684 -73.57984 235.0 160.0 153.0 143.0 161.0 56.0
-60.923492 -73.57984 235.0 160.0 153.0 143.0 162.0 56.0
-60.520145 -73.57984 235.0 160.0 153.0 143.0 163.0 56.0
-60.1168 -73.57984 235.0 160.0 153.0 143.0 164.0 56.0
-59.71345 -73.57984 235.0 160.0 153.0 143.0 165.0 56.0
-59.310104 -73.57984 235.0 160.0 153.0 143.0 166.0 56.0
-58.906757 -73.57984 235.0 160.0 153.0 143.0 167.0 56.0
-58.75236 -73.89295 236.0 160.0 153.0 143.0 168.0 56.0
-58.594532 -74.206055 237.0 160.0 153.0 143.0 169.0 56.0
-58.18775 -74.206055 237.0 160.0 153.0 143.0 170.0 56.0
-57.78097 -74.206055 237.0 160.0 153.0 143.0 171.0 56.0
-57.616276 -74.519165 238.0 160.0 153.0 143.0 172.0 56.0
-57.20778 -74.519165 238.0 160.0 153.0 143.0 173.0 56.0
-56.799282 -74.519165 238.0 160.0 153.0 143.0 174.0 56.0
-56.627724 -74.83227 239.0 160.0 153.0 143.0 175.0 56.0
-56.21751 -74.83227 239.0 159.0 150.0 141.0 176.0 56.0
-55.807297 -74.83227 239.0 160.0 151.0 142.0 177.0 56.0
-55.397083 -74.83227 239.0 161.0 152.0 143.0 178.0 56.0
-55.21694 -75.14537 240.0 162.0 153.0 144.0 179.0 56.0
-54.80501 -75.14537 240.0 162.0 153.0 144.0 180.0 56.0
-54.39308 -75.14537 240.0 161.0 152.0 143.0 181.0 56.0
-54.206078 -75.45848 241.0 160.0 151.0 142.0 182.0 56.0
-53.79243 -75.45848 241.0 159.0 150.0 141.0 183.0 56.0
-53.600273 -75.77158 242.0 159.0 150.0 141.0 184.0 56.0
-54.503548 -77.650215 248.0 159.0 150.0 141.0 185.0 56.0
-55.60428 -79.84196 255.0 159.0 150.0 141.0 186.0 56.0
-55.166603 -79.84196 255.0 159.0 150.0 141.0 187.0 56.0
-54.514305 -79.528854 254.0 159.0 150.0 141.0 188.0 56.0
-53.86544 -79.215744 253.0 159.0 150.0 141.0 189.0 56.0
-53.85358 -79.84196 255.0 159.0 150.0 141.0 190.0 56.0
-53.415905 -79.84196 255.0 159.0 150.0 141.0 191.0 56.0
-52.97823 -79.84196 255.0 161.0 152.0 143.0 192.0 56.0
-52.540554 -79.84196 255.0 161.0 152.0 143.0 193.0 56.0
-52.10288 -79.84196 255.0 161.0 152.0 143.0 194.0 56.0
-51.665207 -79.84196 255.0 161.0 152.0 143.0 195.0 56.0
-51.22753 -79.84196 255.0 161.0 152.0 143.0 196.0 56.0
-50.789856 -79.84196 255.0 161.0 152.0 143.0 197.0 56.0
-50.35218 -79.84196 255.0 161.0 152.0 143.0 198.0 56.0
-49.914505 -79.84196 255.0 161.0 152.0 143.0 199.0 56.0
-49.476833 -79.84196 255.0 161.0 152.0 143.0 200.0 56.0
-49.039158 -79.84196 255.0 161.0 152.0 143.0 201.0 56.0
-48.601482 -79.84196 255.0 161.0 152.0 143.0 202.0 56.0
-48.163807 -79.84196 255.0 161.0 152.0 143.0 203.0 56.0
-47.72613 -79.84196 255.0 161.0 152.0 143.0 204.0 56.0
-47.28846 -79.84196 255.0 161.0 152.0 143.0 205.0 56.0
-46.850784 -79.84196 255.0 161.0 152.0 143.0 206.0 56.0
-46.41311 -79.84196 255.0 161.0 152.0 143.0 207.0 56.0
-45.975433 -79.84196 255.0 161.0 154.0 146.0 208.0 56.0
-45.537758 -79.84196 255.0 161.0 154.0 146.0 209.0 56.0
-45.100086 -79.84196 255.0 161.0 154.0 146.0 210.0 56.0
-44.66241 -79.84196 255.0 161.0 154.0 146.0 211.0 56.0
-44.224735 -79.84196 255.0 161.0 154.0 146.0 212.0 56.0
-43.78706 -79.84196 255.0 161.0 154.0 146.0 213.0 56.0
-43.349384 -79.84196 255.0 161.0 154.0 146.0 214.0 56.0
-42.911713 -79.84196 255.0 161.0 154.0 146.0 215.0 56.0
-42.474037 -79.84196 255.0 160.0 153.0 145.0 216.0 56.0
-42.03636 -79.84196 255.0 160.0 153.0 145.0 217.0 56.0
-41.598686 -79.84196 255.0 160.0 153.0 145.0 218.0 56.0
-41.16101 -79.84196 255.0 160.0 153.0 145.0 219.0 56.0
-40.72334 -79.84196 255.0 160.0 153.0 145.0 220.0 56.0
-40.285664 -79.84196 255.0 160.0 153.0 145.0 221.0 56.0
-39.84799 -79.84196 255.0 160.0 153.0 145.0 222.0 56.0
-39.410313 -79.84196 255.0 160.0 153.0 145.0 223.0 56.0
-38.972637 -79.84196 255.0 161.0 154.0 146.0 224.0 56.0
-38.534966 -79.84196 255.0 161.0 154.0 146.0 225.0 56.0
-38.09729 -79.84196 255.0 161.0 154.0 146.0 226.0 56.0
-37.659615 -79.84196 255.0 161.0 154.0 146.0 227.0 56.0
-37.22194 -79.84196 255.0 161.0 154.0 146.0 228.0 56.0
-36.784264 -79.84196 255.0 161.0 154.0 146.0 229.0 56.0
-36.346592 -79.84196 255.0 161.0 154.0 146.0 230.0 56.0
-35.908916 -79.84196 255.0 161.0 154.0 146.0 231.0 56.0
-35.47124 -79.84196 255.0 160.0 153.0 145.0 232.0 56.0
-35.033566 -79.84196 255.0 160.0 153.0 145.0 233.0 56.0
-34.59589 -79.84196 255.0 160.0 153.0 145.0 234.0 56.0
-34.15822 -79.84196 255.0 159.0 152.0 144.0 235.0 56.0
-33.720543 -79.84196 255.0 159.0 152.0 144.0 236.0 56.0
-33.282867 -79.84196 255.0 158.0 151.0 143.0 237.0 56.0
-32.845192 -79.84196 255.0 158.0 151.0 143.0 238.0 56.0
-32.407516 -79.84196 255.0 158.0 151.0 143.0 239.0 56.0
-31.969843 -79.84196 255.0 160.0 153.0 145.0 240.0 56.0
-31.53217 -79.84196 255.0 160.0 153.0 145.0 241.0 56.0
-31.094494 -79.84196 255.0 159.0 152.0 144.0 242.0 56.0
-30.656818 -79.84196 255.0 158.0 151.0 143.0 243.0 56.0
-30.219145 -79.84196 255.0 158.0 151.0 143.0 244.0 56.0
-29.78147 -79.84196 255.0 159.0 152.0 144.0 245.0 56.0
-29.343796 -79.84196 255.0 160.0 153.0 145.0 246.0 56.0
-28.90612 -79.84196 255.0 160.0 153.0 145.0 247.0 56.0
-28.468447 -79.84196 255.0 159.0 152.0 144.0 248.0 56.0
-28.030771 -79.84196 255.0 160.0 153.0 145.0 249.0 56.0
-27.593096 -79.84196 255.0 161.0 154.0 146.0 250.0 56.0
-27.155422 -79.84196 255.0 162.0 155.0 147.0 251.0 56.0
-26.717747 -79.84196 255.0 163.0 156.0 148.0 252.0 56.0
-26.280073 -79.84196 255.0 162.0 155.0 147.0 253.0 56.0
-25.842398 -79.84196 255.0 161.0 154.0 146.0 254.0 56.0
-25.404722 -79.84196 255.0 161.0 154.0 146.0 255.0 56.0
-137.01178 -79.404335 255.0 162.0 156.0 144.0 0.0 57.0
-136.5741 -79.404335 255.0 162.0 156.0 144.0 1.0 57.0
-136.13643 -79.404335 255.0 162.0 156.0 144.0 2.0 57.0
-135.69875 -79.404335 255.0 162.0 156.0 144.0 3.0 57.0
-135.26108 -79.404335 255.0 162.0 156.0 144.0 4.0 57.0
-134.8234 -79.404335 255.0 162.0 156.0 144.0 5.0 57.0
-134.38573 -79.404335 255.0 162.0 156.0 144.0 6.0 57.0
-133.94804 -79.404335 255.0 162.0 156.0 144.0 7.0 57.0
-133.51038 -79.404335 255.0 161.0 155.0 143.0 8.0 57.0
-133.07271 -79.404335 255.0 161.0 155.0 143.0 9.0 57.0
-132.63503 -79.404335 255.0 161.0 155.0 143.0 10.0 57.0
-132.19736 -79.404335 255.0 162.0 156.0 144.0 11.0 57.0
-131.75967 -79.404335 255.0 162.0 156.0 144.0 12.0 57.0
-131.322 -79.404335 255.0 162.0 156.0 144.0 13.0 57.0
-130.88432 -79.404335 255.0 163.0 157.0 145.0 14.0 57.0
-130.44666 -79.404335 255.0 163.0 157.0 145.0 15.0 57.0
-130.00897 -79.404335 255.0 164.0 157.0 147.0 16.0 57.0
-129.5713 -79.404335 255.0 163.0 156.0 146.0 17.0 57.0
-129.13362 -79.404335 255.0 162.0 155.0 145.0 18.0 57.0
-128.69595 -79.404335 255.0 161.0 154.0 144.0 19.0 57.0
-128.25829 -79.404335 255.0 161.0 154.0 144.0 20.0 57.0
-127.8206 -79.404335 255.0 161.0 154.0 144.0 21.0 57.0
-127.38293 -79.404335 255.0 161.0 154.0 144.0 22.0 57.0
-126.94525 -79.404335 255.0 162.0 155.0 145.0 23.0 57.0
-126.50758 -79.404335 255.0 160.0 153.0 143.0 24.0 57.0
-126.06991 -79.404335 255.0 160.0 153.0 143.0 25.0 57.0
-125.63223 -79.404335 255.0 160.0 153.0 143.0 26.0 57.0
-125.19456 -79.404335 255.0 160.0 153.0 143.0 27.0 57.0
-124.75688 -79.404335 255.0 160.0 153.0 143.0 28.0 57.0
-124.31921 -79.404335 255.0 160.0 153.0 143.0 29.0 57.0
-123.88153 -79.404335 255.0 160.0 153.0 143.0 30.0 57.0
-123.443855 -79.404335 255.0 160.0 153.0 143.0 31.0 57.0
-123.00618 -79.404335 255.0 162.0 155.0 145.0 32.0 57.0
-122.568504 -79.404335 255.0 161.0 154.0 144.0 33.0 57.0
-122.13084 -79.404335 255.0 161.0 154.0 144.0 34.0 57.0
-121.69316 -79.404335 255.0 161.0 154.0 144.0 35.0 57.0
-121.255486 -79.404335 255.0 161.0 154.0 144.0 36.0 57.0
-120.81781 -79.404335 255.0 162.0 155.0 145.0 37.0 57.0
-120.380135 -79.404335 255.0 164.0 157.0 147.0 38.0 57.0
-119.94246 -79.404335 255.0 164.0 157.0 147.0 39.0 57.0
-119.50478 -79.404335 255.0 162.0 155.0 145.0 40.0 57.0
-119.06711 -79.404335 255.0 162.0 155.0 145.0 41.0 57.0
-118.62943 -79.404335 255.0 162.0 155.0 145.0 42.0 57.0
-118.19176 -79.404335 255.0 162.0 155.0 145.0 43.0 57.0
-117.75409 -79.404335 255.0 162.0 155.0 145.0 44.0 57.0
-117.316414 -79.404335 255.0 162.0 155.0 145.0 45.0 57.0
-116.87874 -79.404335 255.0 161.0 154.0 144.0 46.0 57.0
-116.44106 -79.404335 255.0 161.0 154.0 144.0 47.0 57.0
-116.00339 -79.404335 255.0 161.0 154.0 144.0 48.0 57.0
-115.56571 -79.404335 255.0 161.0 154.0 144.0 49.0 57.0
-115.12804 -79.404335 255.0 161.0 154.0 144.0 50.0 57.0
-114.69036 -79.404335 255.0 161.0 154.0 144.0 51.0 57.0
-114.252686 -79.404335 255.0 161.0 154.0 144.0 52.0 57.0
-113.81501 -79.404335 255.0 161.0 154.0 144.0 53.0 57.0
-113.37734 -79.404335 255.0 161.0 154.0 144.0 54.0 57.0
-112.93967 -79.404335 255.0 161.0 154.0 144.0 55.0 57.0
-112.50199 -79.404335 255.0 162.0 155.0 145.0 56.0 57.0
-112.064316 -79.404335 255.0 162.0 155.0 145.0 57.0 57.0
-111.62664 -79.404335 255.0 162.0 155.0 145.0 58.0 57.0
