ply
format ascii 1.0
element vertex 717
property float x
property float y
property float z
property uchar red
property uchar green
property uchar blue
property float cx
property float cy
property float depth
property uchar alpha
element face 0
property list uchar int vertex_indices
end_header
-0.33148685 0.1433284 -0.8285763 0 0 0 170.0 76.0 0.8779297  255
-0.33414996 0.14374684 -0.83602196 0 0 0 170.0 77.0 0.8847656  255
-0.33681336 0.14415696 -0.84346545 0 0 0 170.0 78.0 0.89160156  255
-0.33872122 0.14429037 -0.84874076 0 0 0 170.0 79.0 0.8964844  255
-0.3404403 0.14435105 -0.85347307 0 0 0 170.0 80.0 0.9008789  255
-0.34140366 0.14414024 -0.8560385 0 0 0 170.0 81.0 0.9033203  255
-0.3423671 0.14392653 -0.8586032 0 0 0 170.0 82.0 0.9057617  255
-0.34295267 0.14357792 -0.8600847 0 0 0 170.0 83.0 0.90722656  255
-0.34353828 0.14322758 -0.86156577 0 0 0 170.0 84.0 0.9086914  255
-0.34412393 0.14287546 -0.8630462 0 0 0 170.0 85.0 0.91015625  255
-0.3447097 0.14252158 -0.86452633 0 0 0 170.0 86.0 0.9116211  255
-0.34472838 0.14197157 -0.8643833 0 0 0 170.0 87.0 0.9116211  255
-0.34512514 0.14155059 -0.86532193 0 0 0 170.0 88.0 0.91259766  255
-0.34571105 0.14119256 -0.86680096 0 0 0 170.0 89.0 0.9140625  255
-0.346297 0.14083281 -0.8682795 0 0 0 170.0 90.0 0.91552734  255
-0.3476393 0.14072564 -0.87192005 0 0 0 170.0 91.0 0.9189453  255
-0.34992716 0.14093083 -0.8782621 0 0 0 170.0 92.0 0.9248047  255
-0.35108075 0.14075093 -0.88135964 0 0 0 170.0 93.0 0.9277344  255
-0.35261258 0.14069295 -0.8855371 0 0 0 170.0 94.0 0.9316406  255
-0.35357726 0.14044298 -0.88809234 0 0 0 170.0 95.0 0.93408203  255
-0.35473123 0.14025217 -0.891187 0 0 0 170.0 96.0 0.9370117  255
-0.35588524 0.14005783 -0.89428085 0 0 0 170.0 97.0 0.9399414  255
-0.3570394 0.13985996 -0.8973736 0 0 0 170.0 98.0 0.9428711  255
-0.3576262 0.13947487 -0.8988456 0 0 0 170.0 99.0 0.94433594  255
-0.35878053 0.13927081 -0.90193695 0 0 0 170.0 100.0 0.9472656  255
-0.35955667 0.13894196 -0.90394765 0 0 0 170.0 101.0 0.94921875  255
-0.3605221 0.13867104 -0.9064974 0 0 0 170.0 102.0 0.95166016  255
-0.36110917 0.13827711 -0.90796715 0 0 0 170.0 103.0 0.953125  255
-0.3618855 0.13794115 -0.90997595 0 0 0 170.0 104.0 0.9550781  255
-0.36285117 0.13766232 -0.9125237 0 0 0 170.0 105.0 0.95751953  255
-0.36362773 0.13732132 -0.9145312 0 0 0 170.0 106.0 0.95947266  255
-0.36440435 0.13697803 -0.9165382 0 0 0 170.0 107.0 0.9614258  255
-0.3653703 0.13669094 -0.9190838 0 0 0 170.0 108.0 0.9638672  255
-0.36614704 0.13634264 -0.92108935 0 0 0 170.0 109.0 0.9658203  255
-0.3671132 0.13604996 -0.9236335 0 0 0 170.0 110.0 0.9682617  255
-0.36751163 0.1355812 -0.92455965 0 0 0 170.0 111.0 0.9692383  255
-0.36828864 0.1352261 -0.92656356 0 0 0 170.0 112.0 0.9711914  255
-0.36849782 0.1346973 -0.92695004 0 0 0 170.0 113.0 0.9716797  255
-0.36870706 0.13416791 -0.9273364 0 0 0 170.0 114.0 0.97216797  255
-0.3689163 0.1336379 -0.92772263 0 0 0 170.0 115.0 0.97265625  255
-0.36912555 0.13310733 -0.92810863 0 0 0 170.0 116.0 0.97314453  255
-0.36952415 0.1326321 -0.9290331 0 0 0 170.0 117.0 0.9741211  255
-0.3693548 0.13198882 -0.9283417 0 0 0 170.0 118.0 0.9736328  255
-0.36937475 0.13140145 -0.92818886 0 0 0 170.0 119.0 0.9736328  255
-0.36920533 0.130759 -0.9274977 0 0 0 170.0 120.0 0.97314453  255
-0.36922526 0.1301719 -0.927345 0 0 0 170.0 121.0 0.97314453  255
-0.36924523 0.12958479 -0.9271923 0 0 0 170.0 122.0 0.97314453  255
-0.36831817 0.12872688 -0.9243488 0 0 0 170.0 123.0 0.9707031  255
-0.36852747 0.1281951 -0.92473453 0 0 0 170.0 124.0 0.9711914  255
-0.36797914 0.12744845 -0.9229681 0 0 0 170.0 125.0 0.96972656  255
-0.3674307 0.12670359 -0.92120224 0 0 0 170.0 126.0 0.9682617  255
-0.36764 0.12617245 -0.9215881 0 0 0 170.0 127.0 0.96875  255
-0.367281 0.12548262 -0.9203605 0 0 0 170.0 128.0 0.96777344  255
-0.36711133 0.12484636 -0.919671 0 0 0 170.0 129.0 0.96728516  255
-0.36732066 0.12431491 -0.92005676 0 0 0 170.0 130.0 0.96777344  255
-0.36752993 0.123782836 -0.9204424 0 0 0 170.0 131.0 0.9682617  255
-0.36792877 0.12330174 -0.92136544 0 0 0 170.0 132.0 0.9692383  255
-0.3687066 0.122921914 -0.9233628 0 0 0 170.0 133.0 0.9711914  255
-0.367779 0.12208135 -0.9205238 0 0 0 170.0 134.0 0.96875  255
-0.3683674 0.12164879 -0.92198354 0 0 0 170.0 135.0 0.97021484  255
-0.36895585 0.121214524 -0.92344266 0 0 0 170.0 136.0 0.9716797  255
-0.3695444 0.12077845 -0.9249014 0 0 0 170.0 137.0 0.97314453  255
-0.36956432 0.12019134 -0.9247487 0 0 0 170.0 138.0 0.97314453  255
-0.36996335 0.11970318 -0.92566985 0 0 0 170.0 139.0 0.9741211  255
-0.37055206 0.11926296 -0.92712754 0 0 0 170.0 140.0 0.97558594  255
-0.37246782 0.11916305 -0.9323421 0 0 0 170.0 141.0 0.98046875  255
-0.37533176 0.11930011 -0.94023854 0 0 0 170.0 142.0 0.98779297  255
-0.3770584 0.11913867 -0.9449131 0 0 0 170.0 143.0 0.9921875  255
-0.37688914 0.1184921 -0.94422084 0 0 0 170.0 144.0 0.9916992  255
-0.3774783 0.11803688 -0.9456746 0 0 0 170.0 145.0 0.99316406  255
-0.3771194 0.117342964 -0.944446 0 0 0 170.0 146.0 0.9921875  255
-0.37695011 0.11669728 -0.9437539 0 0 0 170.0 147.0 0.9916992  255
-0.37697044 0.11609897 -0.94359833 0 0 0 170.0 148.0 0.9916992  255
-0.3760425 0.11526812 -0.94076186 0 0 0 170.0 149.0 0.9892578  255
-0.375304 0.114486456 -0.9384623 0 0 0 170.0 150.0 0.9873047  255
-0.37494493 0.113798976 -0.9372354 0 0 0 170.0 151.0 0.9863281  255
-0.37458575 0.11311268 -0.93600875 0 0 0 170.0 152.0 0.98535156  255
-0.37441626 0.1124729 -0.9353183 0 0 0 170.0 153.0 0.9848633  255
-0.37386733 0.11174362 -0.9335564 0 0 0 170.0 154.0 0.98339844  255
-0.37369773 0.11110563 -0.9328663 0 0 0 170.0 155.0 0.98291016  255
-0.37352815 0.110468194 -0.9321764 0 0 0 170.0 156.0 0.9824219  255
-0.37335858 0.10983133 -0.9314868 0 0 0 170.0 157.0 0.9819336  255
-0.3733787 0.10923892 -0.93133265 0 0 0 170.0 158.0 0.9819336  255
-0.37301934 0.1085594 -0.9301078 0 0 0 170.0 159.0 0.98095703  255
-0.37247014 0.10783783 -0.9283479 0 0 0 170.0 160.0 0.9794922  255
-0.3719208 0.10711797 -0.9265885 0 0 0 170.0 161.0 0.97802734  255
-0.37099195 0.10631451 -0.92375916 0 0 0 170.0 162.0 0.97558594  255
-0.37025276 0.10555642 -0.9214657 0 0 0 170.0 163.0 0.9736328  255
-0.36989307 0.104884855 -0.92024285 0 0 0 170.0 164.0 0.97265625  255
-0.3691537 0.10413088 -0.9179506 0 0 0 170.0 165.0 0.9707031  255
-0.367655 0.10321326 -0.9135193 0 0 0 170.0 166.0 0.9667969  255
-0.36691543 0.10246515 -0.9112285 0 0 0 170.0 167.0 0.96484375  255
-0.36617583 0.1017194 -0.90893835 0 0 0 170.0 168.0 0.9628906  255
-0.3661956 0.101138495 -0.9087872 0 0 0 170.0 169.0 0.9628906  255
-0.36621532 0.10055762 -0.90863603 0 0 0 170.0 170.0 0.9628906  255
-0.36604515 0.09993664 -0.90795046 0 0 0 170.0 171.0 0.96240234  255
-0.36644462 0.099435486 -0.90886825 0 0 0 170.0 172.0 0.9633789  255
-0.3668442 0.098933205 -0.9097857 0 0 0 170.0 173.0 0.96435547  255
-0.3672438 0.098429695 -0.91070276 0 0 0 170.0 174.0 0.96533203  255
-0.36764342 0.09792502 -0.9116196 0 0 0 170.0 175.0 0.9663086  255
-0.36804307 0.097419165 -0.9125362 0 0 0 170.0 176.0 0.96728516  255
-0.36844274 0.09691214 -0.9134523 0 0 0 170.0 177.0 0.9682617  255
-0.3688425 0.09640392 -0.91436833 0 0 0 170.0 178.0 0.9692383  255
-0.3696222 0.095969886 -0.9163516 0 0 0 170.0 179.0 0.9711914  255
-0.37021202 0.09549611 -0.9178005 0 0 0 170.0 180.0 0.97265625  255
-0.37080187 0.09502054 -0.919249 0 0 0 170.0 181.0 0.9741211  255
-0.37215176 0.09469036 -0.9228315 0 0 0 170.0 182.0 0.97753906  255
-0.3727418 0.09421011 -0.9242788 0 0 0 170.0 183.0 0.9790039  255
-0.37447196 0.09394529 -0.9289264 0 0 0 170.0 184.0 0.98339844  255
-0.37468213 0.09338791 -0.9293055 0 0 0 170.0 185.0 0.9838867  255
-0.37584248 0.09300803 -0.93235093 0 0 0 170.0 186.0 0.9868164  255
-0.3770029 0.09262454 -0.93539554 0 0 0 170.0 187.0 0.9897461  255
-0.38044408 0.09265782 -0.9448373 0 0 0 170.0 188.0 0.99853516  255
-0.3806546 0.09209014 -0.9452136 0 0 0 170.0 189.0 0.99902344  255
-0.40006205 0.094999455 -0.9994243 0 0 0 170.0 190.0 1.0488281  255
-0.44988424 0.1033107 -1.1388893 0 0 0 170.0 191.0 1.1767578  255
-0.51142675 0.2710822 -1.3690214 0 0 0 171.0 0.0 1.3505859  255
-0.5118302 0.2704476 -1.3699044 0 0 0 171.0 1.0 1.3515625  255
-0.5126094 0.26999146 -1.3718818 0 0 0 171.0 2.0 1.3535156  255
-0.51338875 0.26953295 -1.3738587 0 0 0 171.0 3.0 1.3554688  255
-0.5137924 0.2688936 -1.3747405 0 0 0 171.0 4.0 1.3564453  255
-0.5138202 0.2680753 -1.3745276 0 0 0 171.0 5.0 1.3564453  255
-0.5142238 0.26743427 -1.3754089 0 0 0 171.0 6.0 1.3574219  255
-0.5153792 0.26714534 -1.3784779 0 0 0 171.0 7.0 1.3603516  255
-0.5161588 0.26667678 -1.3804522 0 0 0 171.0 8.0 1.3623047  255
-0.5165627 0.2660304 -1.381332 0 0 0 171.0 9.0 1.3632812  255
-0.5173425 0.26555783 -1.3833052 0 0 0 171.0 10.0 1.3652344  255
-0.5177464 0.26490846 -1.3841844 0 0 0 171.0 11.0 1.3662109  255
-0.5185264 0.2644317 -1.3861564 0 0 0 171.0 12.0 1.3681641  255
-0.51930636 0.26395252 -1.3881279 0 0 0 171.0 13.0 1.3701172  255
-0.5197104 0.2632985 -1.3890059 0 0 0 171.0 14.0 1.3710938  255
-0.52011454 0.2626433 -1.3898835 0 0 0 171.0 15.0 1.3720703  255
-0.5205188 0.26198697 -1.3907608 0 0 0 171.0 16.0 1.3730469  255
-0.52129906 0.26150006 -1.3927302 0 0 0 171.0 17.0 1.375  255
-0.5217033 0.26084077 -1.3936068 0 0 0 171.0 18.0 1.3759766  255
-0.5224837 0.26034987 -1.3955752 0 0 0 171.0 19.0 1.3779297  255
-0.52288806 0.25968763 -1.396451 0 0 0 171.0 20.0 1.3789062  255
-0.5232925 0.25902414 -1.3973265 0 0 0 171.0 21.0 1.3798828  255
-0.5240731 0.25852734 -1.3992933 0 0 0 171.0 22.0 1.3818359  255
-0.5248538 0.2580282 -1.4012597 0 0 0 171.0 23.0 1.3837891  255
-0.5256346 0.25752667 -1.4032253 0 0 0 171.0 24.0 1.3857422  255
-0.52679163 0.25718886 -1.4062816 0 0 0 171.0 25.0 1.3886719  255
-0.5271964 0.2565165 -1.4071548 0 0 0 171.0 26.0 1.3896484  255
-0.5279774 0.25600794 -1.4091185 0 0 0 171.0 27.0 1.3916016  255
-0.5283822 0.2553327 -1.409991 0 0 0 171.0 28.0 1.3925781  255
-0.52916336 0.25482 -1.4119537 0 0 0 171.0 29.0 1.3945312  255
-0.52994466 0.25430498 -1.4139159 0 0 0 171.0 30.0 1.3964844  255
-0.53110224 0.25395 -1.4169677 0 0 0 171.0 31.0 1.3994141  255
-0.53150725 0.25326774 -1.4178382 0 0 0 171.0 32.0 1.4003906  255
-0.5292777 0.25145477 -1.4110783 0 0 0 171.0 33.0 1.3945312  255
-0.5308119 0.25125656 -1.415219 0 0 0 171.0 34.0 1.3984375  255
-0.5308406 0.25041285 -1.4149995 0 0 0 171.0 35.0 1.3984375  255
-0.35977316 0.17703661 -0.9195686 0 0 0 171.0 36.0 0.95458984  255
-0.3268517 0.16254836 -0.8240944 0 0 0 171.0 37.0 0.8691406  255
-0.32517532 0.16131118 -0.81905633 0 0 0 171.0 38.0 0.8647461  255
-0.3257578 0.16102621 -0.8205543 0 0 0 171.0 39.0 0.86621094  255
-0.32332814 0.15948161 -0.8133401 0 0 0 171.0 40.0 0.8598633  255
-0.32221606 0.15849292 -0.8099387 0 0 0 171.0 41.0 0.8569336  255
-0.32072738 0.15735176 -0.80544966 0 0 0 171.0 42.0 0.85302734  255
-0.3196151 0.15637076 -0.80205023 0 0 0 171.0 43.0 0.85009766  255
-0.3188793 0.15554813 -0.79974014 0 0 0 171.0 44.0 0.84814453  255
-0.31852007 0.15488216 -0.79851884 0 0 0 171.0 45.0 0.84716797  255
-0.31834906 0.15429422 -0.79784185 0 0 0 171.0 46.0 0.8466797  255
-0.3183664 0.15378344 -0.797709 0 0 0 171.0 47.0 0.8466797  255
-0.31819546 0.1531964 -0.79703224 0 0 0 171.0 48.0 0.8461914  255
-0.3182128 0.15268585 -0.79689944 0 0 0 171.0 49.0 0.8461914  255
-0.31823015 0.15217537 -0.79676664 0 0 0 171.0 50.0 0.8461914  255
-0.31805912 0.15158951 -0.79609025 0 0 0 171.0 51.0 0.8457031  255
-0.31807646 0.1510793 -0.7959575 0 0 0 171.0 52.0 0.8457031  255
-0.3182822 0.15064386 -0.79636824 0 0 0 171.0 53.0 0.8461914  255
-0.31848788 0.15020788 -0.79677886 0 0 0 171.0 54.0 0.8466797  255
-0.31869367 0.14977124 -0.7971893 0 0 0 171.0 55.0 0.84716797  255
-0.31889942 0.14933407 -0.7975996 0 0 0 171.0 56.0 0.84765625  255
-0.3191053 0.14889628 -0.79800975 0 0 0 171.0 57.0 0.84814453  255
-0.31931108 0.14845791 -0.7984198 0 0 0 171.0 58.0 0.8486328  255
-0.31951696 0.14801896 -0.7988296 0 0 0 171.0 59.0 0.8491211  255
-0.3197228 0.1475794 -0.7992393 0 0 0 171.0 60.0 0.8496094  255
-0.3199287 0.14713928 -0.7996488 0 0 0 171.0 61.0 0.85009766  255
-0.3199461 0.14662641 -0.7995154 0 0 0 171.0 62.0 0.85009766  255
-0.32034048 0.14625728 -0.80046743 0 0 0 171.0 63.0 0.8510742  255
-0.32054648 0.14581531 -0.8008765 0 0 0 171.0 64.0 0.8515625  255
-0.32094097 0.14544411 -0.801828 0 0 0 171.0 65.0 0.85253906  255
-0.32133546 0.1450717 -0.8027792 0 0 0 171.0 66.0 0.8535156  255
-0.32173005 0.14469807 -0.8037301 0 0 0 171.0 67.0 0.8544922  255
-0.3223132 0.14439368 -0.805223 0 0 0 171.0 68.0 0.85595703  255
-0.32308498 0.14415757 -0.80725765 0 0 0 171.0 69.0 0.85791016  255
-0.3238568 0.1439191 -0.8092917 0 0 0 171.0 70.0 0.8598633  255
-0.3248173 0.14374778 -0.8118673 0 0 0 171.0 71.0 0.8623047  255
-0.32596645 0.14364271 -0.81498414 0 0 0 171.0 72.0 0.8652344  255
-0.32749295 0.14367187 -0.819184 0 0 0 171.0 73.0 0.8691406  255
-0.32939678 0.1438335 -0.82446635 0 0 0 171.0 74.0 0.87402344  255
-0.33148947 0.14405756 -0.83028895 0 0 0 171.0 75.0 0.87939453  255
-0.33358237 0.14427517 -0.8361099 0 0 0 171.0 76.0 0.8847656  255
-0.33567548 0.1444863 -0.84192914 0 0 0 171.0 77.0 0.8901367  255
-0.3375802 0.14462346 -0.8472051 0 0 0 171.0 78.0 0.89501953  255
-0.3389191 0.1445534 -0.8508551 0 0 0 171.0 79.0 0.8984375  255
-0.34006953 0.14441237 -0.8539626 0 0 0 171.0 80.0 0.9013672  255
-0.34084266 0.14413473 -0.85598654 0 0 0 171.0 81.0 0.9033203  255
-0.34142727 0.14378852 -0.85746855 0 0 0 171.0 82.0 0.90478516  255
-0.3416345 0.14330858 -0.85786766 0 0 0 171.0 83.0 0.90527344  255
-0.3422191 0.14295939 -0.85934895 0 0 0 171.0 84.0 0.9067383  255
-0.34242648 0.14247774 -0.8597477 0 0 0 171.0 85.0 0.90722656  255
-0.34301123 0.1421256 -0.86122817 0 0 0 171.0 86.0 0.9086914  255
-0.34359607 0.1417717 -0.86270815 0 0 0 171.0 87.0 0.91015625  255
-0.3439922 0.14135155 -0.8636469 0 0 0 171.0 88.0 0.9111328  255
-0.34495467 0.14112282 -0.86620766 0 0 0 171.0 89.0 0.9135742  255
-0.34553966 0.14076331 -0.8676862 0 0 0 171.0 90.0 0.91503906  255
-0.3470686 0.14072004 -0.8718671 0 0 0 171.0 91.0 0.9189453  255
-0.3489753 0.14079854 -0.87712795 0 0 0 171.0 92.0 0.9238281  255
-0.350127 0.14061925 -0.8802255 0 0 0 171.0 93.0 0.9267578  255
-0.3512788 0.14043641 -0.88332206 0 0 0 171.0 94.0 0.9296875  255
-0.35224196 0.14018759 -0.88587743 0 0 0 171.0 95.0 0.9321289  255
-0.35339397 0.13999796 -0.88897234 0 0 0 171.0 96.0 0.9350586  255
-0.3545462 0.13980478 -0.8920662 0 0 0 171.0 97.0 0.9379883  255
-0.35550964 0.13954657 -0.89461917 0 0 0 171.0 98.0 0.9404297  255
-0.3564732 0.13928537 -0.89717144 0 0 0 171.0 99.0 0.9428711  255
-0.35724795 0.13896032 -0.899183 0 0 0 171.0 100.0 0.9448242  255
-0.3580228 0.13863292 -0.9011939 0 0 0 171.0 101.0 0.94677734  255
-0.35879776 0.1383031 -0.90320426 0 0 0 171.0 102.0 0.94873047  255
-0.3595728 0.13797095 -0.905214 0 0 0 171.0 103.0 0.9506836  255
-0.35997006 0.13751698 -0.90614396 0 0 0 171.0 104.0 0.95166016  255
-0.36093417 0.13724017 -0.90869206 0 0 0 171.0 105.0 0.95410156  255
-0.36170945 0.13690123 -0.9107 0 0 0 171.0 106.0 0.9560547  255
-0.36248472 0.13655996 -0.9127074 0 0 0 171.0 107.0 0.9580078  255
-0.36344913 0.13627496 -0.91525334 0 0 0 171.0 108.0 0.9604492  255
-0.36422458 0.13592866 -0.9172594 0 0 0 171.0 109.0 0.96240234  255
-0.3650002 0.13558008 -0.91926485 0 0 0 171.0 110.0 0.96435547  255
-0.3653979 0.13511364 -0.9201916 0 0 0 171.0 111.0 0.96533203  255
-0.36598465 0.13470349 -0.921657 0 0 0 171.0 112.0 0.9667969  255
-0.36600447 0.13412023 -0.9215053 0 0 0 171.0 113.0 0.9667969  255
-0.3662133 0.13359383 -0.92189234 0 0 0 171.0 114.0 0.96728516  255
-0.3662331 0.13301024 -0.9217405 0 0 0 171.0 115.0 0.96728516  255
-0.36644194 0.13248289 -0.9221274 0 0 0 171.0 116.0 0.96777344  255
-0.36646178 0.13189903 -0.92197543 0 0 0 171.0 117.0 0.96777344  255
-0.3668597 0.13142645 -0.9229006 0 0 0 171.0 118.0 0.96875  255
-0.3666905 0.13078672 -0.92221016 0 0 0 171.0 119.0 0.9682617  255
-0.36652127 0.13014749 -0.9215198 0 0 0 171.0 120.0 0.96777344  255
-0.36635205 0.12950891 -0.9208297 0 0 0 171.0 121.0 0.96728516  255
-0.36656097 0.12897977 -0.9212161 0 0 0 171.0 122.0 0.96777344  255
-0.36658078 0.12839594 -0.9210642 0 0 0 171.0 123.0 0.96777344  255
-0.36660063 0.12781206 -0.9209123 0 0 0 171.0 124.0 0.96777344  255
-0.365864 0.12701392 -0.9186086 0 0 0 171.0 125.0 0.9658203  255
-0.36645117 0.12659112 -0.9200707 0 0 0 171.0 126.0 0.96728516  255
-0.36628187 0.12595457 -0.9193811 0 0 0 171.0 127.0 0.9667969  255
-0.36667997 0.12547669 -0.92030483 0 0 0 171.0 128.0 0.96777344  255
-0.36688894 0.124945246 -0.9206906 0 0 0 171.0 129.0 0.9682617  255
-0.36709794 0.1244132 -0.92107624 0 0 0 171.0 130.0 0.96875  255
-0.36749616 0.12393238 -0.92199916 0 0 0 171.0 131.0 0.96972656  255
-0.3678944 0.123450354 -0.92292184 0 0 0 171.0 132.0 0.9707031  255
-0.36829266 0.1229672 -0.9238443 0 0 0 171.0 133.0 0.9716797  255
-0.3683126 0.12238096 -0.9236917 0 0 0 171.0 134.0 0.9716797  255
-0.36852172 0.12184537 -0.9240765 0 0 0 171.0 135.0 0.97216797  255
-0.36854163 0.12125889 -0.9239239 0 0 0 171.0 136.0 0.97216797  255
-0.3691293 0.12082254 -0.92538244 0 0 0 171.0 137.0 0.9736328  255
-0.36877078 0.12013563 -0.9241558 0 0 0 171.0 138.0 0.97265625  255
-0.3686014 0.11949939 -0.92346615 0 0 0 171.0 139.0 0.97216797  255
-0.36843207 0.11886372 -0.92277676 0 0 0 171.0 140.0 0.9716797  255
-0.36901984 0.118424095 -0.92423457 0 0 0 171.0 141.0 0.97314453  255
-0.3701755 0.118128434 -0.9273018 0 0 0 171.0 142.0 0.9760742  255
-0.37038478 0.117587835 -0.9276852 0 0 0 171.0 143.0 0.9765625  255
-0.37135133 0.117238574 -0.93021446 0 0 0 171.0 144.0 0.9790039  255
-0.37156072 0.11669565 -0.93059725 0 0 0 171.0 145.0 0.9794922  255
-0.37139148 0.11605733 -0.92990714 0 0 0 171.0 146.0 0.9790039  255
-0.37141153 0.115466736 -0.9297536 0 0 0 171.0 147.0 0.9790039  255
-0.3710529 0.114782475 -0.92852753 0 0 0 171.0 148.0 0.97802734  255
-0.37126228 0.114238925 -0.9289101 0 0 0 171.0 149.0 0.9785156  255
-0.37128234 0.1136486 -0.92875654 0 0 0 171.0 150.0 0.9785156  255
-0.37187052 0.11319604 -0.9302109 0 0 0 171.0 151.0 0.97998047  255
-0.3718906 0.11260482 -0.9300571 0 0 0 171.0 152.0 0.97998047  255
-0.37247887 0.11214958 -0.93151075 0 0 0 171.0 153.0 0.9814453  255
-0.3723096 0.11151245 -0.930821 0 0 0 171.0 154.0 0.98095703  255
-0.3721403 0.11087589 -0.9301314 0 0 0 171.0 155.0 0.98046875  255
-0.37216038 0.1102844 -0.9299775 0 0 0 171.0 156.0 0.98046875  255
-0.3716122 0.10956045 -0.9282171 0 0 0 171.0 157.0 0.9790039  255
-0.37144276 0.108925946 -0.92752796 0 0 0 171.0 158.0 0.9785156  255
-0.37127337 0.108292066 -0.92683905 0 0 0 171.0 159.0 0.97802734  255
-0.37129343 0.10770201 -0.92668563 0 0 0 171.0 160.0 0.97802734  255
-0.37093452 0.107026026 -0.9254617 0 0 0 171.0 161.0 0.9770508  255
-0.37057558 0.10635121 -0.92423815 0 0 0 171.0 162.0 0.9760742  255
-0.36964813 0.10555046 -0.92140967 0 0 0 171.0 163.0 0.9736328  255
-0.3690995 0.1048368 -0.9196519 0 0 0 171.0 164.0 0.97216797  255
-0.3685509 0.10412495 -0.91789466 0 0 0 171.0 165.0 0.9707031  255
-0.3678127 0.10337333 -0.915603 0 0 0 171.0 166.0 0.96875  255
-0.36726394 0.10266527 -0.9138467 0 0 0 171.0 167.0 0.96728516  255
-0.3669047 0.101999894 -0.9126256 0 0 0 171.0 168.0 0.9663086  255
-0.3669245 0.10141693 -0.91247386 0 0 0 171.0 169.0 0.9663086  255
-0.3669443 0.10083397 -0.9123222 0 0 0 171.0 170.0 0.9663086  255
-0.36715367 0.10029099 -0.912705 0 0 0 171.0 171.0 0.9667969  255
-0.36736307 0.09974744 -0.91308767 0 0 0 171.0 172.0 0.96728516  255
-0.3675725 0.099203356 -0.9134702 0 0 0 171.0 173.0 0.96777344  255
-0.3679715 0.09869779 -0.9143867 0 0 0 171.0 174.0 0.96875  255
-0.36818105 0.09815218 -0.9147689 0 0 0 171.0 175.0 0.9692383  255
-0.36895937 0.097721666 -0.916753 0 0 0 171.0 176.0 0.9711914  255
-0.36935854 0.09721226 -0.9176685 0 0 0 171.0 177.0 0.97216797  255
-0.36994743 0.09673964 -0.9191176 0 0 0 171.0 178.0 0.9736328  255
-0.3703467 0.09622761 -0.92003244 0 0 0 171.0 179.0 0.9746094  255
-0.37131497 0.09582652 -0.92254835 0 0 0 171.0 180.0 0.9770508  255
-0.37171435 0.09531122 -0.92346233 0 0 0 171.0 181.0 0.97802734  255
-0.3730622 0.094978675 -0.927044 0 0 0 171.0 182.0 0.9814453  255
-0.3734617 0.09445958 -0.927957 0 0 0 171.0 183.0 0.9824219  255
-0.3755686 0.09426503 -0.9336708 0 0 0 171.0 184.0 0.98779297  255
-0.37786543 0.09409995 -0.9399162 0 0 0 171.0 185.0 0.99365234  255
-0.3814906 0.09417699 -0.9498928 0 0 0 171.0 186.0 1.0029297  255
-0.40959197 0.09879819 -1.0286514 0 0 0 171.0 187.0 1.0751953  255
-0.5196665 0.11846006 -1.3377033 0 0 0 171.0 188.0 1.3583984  255
-0.528423 0.11923778 -1.3620111 0 0 0 171.0 189.0 1.3808594  255
-0.6005623 0.13148768 -1.564329 0 0 0 171.0 190.0 1.5664062  255
-0.53075695 0.11798127 -1.3679726 0 0 0 171.0 191.0 1.3867188  255
-0.51058805 0.27107397 -1.3689437 0 0 0 172.0 0.0 1.3505859  255
-0.51099086 0.27043933 -1.3698266 0 0 0 172.0 1.0 1.3515625  255
-0.5117689 0.26998317 -1.3718039 0 0 0 172.0 2.0 1.3535156  255
-0.512547 0.26952466 -1.3737806 0 0 0 172.0 3.0 1.3554688  255
-0.51295 0.2688853 -1.3746624 0 0 0 172.0 4.0 1.3564453  255
-0.5129778 0.268067 -1.3744495 0 0 0 172.0 5.0 1.3564453  255
-0.5133808 0.26742592 -1.3753307 0 0 0 172.0 6.0 1.3574219  255
-0.51453435 0.26713705 -1.3783996 0 0 0 172.0 7.0 1.3603516  255
-0.5149375 0.26649234 -1.3792799 0 0 0 172.0 8.0 1.3613281  255
-0.51609135 0.26619756 -1.3823472 0 0 0 172.0 9.0 1.3642578  255
-0.5164947 0.26554942 -1.3832266 0 0 0 172.0 10.0 1.3652344  255
-0.5168979 0.26490012 -1.3841057 0 0 0 172.0 11.0 1.3662109  255
-0.5176767 0.26442328 -1.3860776 0 0 0 172.0 12.0 1.3681641  255
-0.5180801 0.263771 -1.386956 0 0 0 172.0 13.0 1.3691406  255
-0.51885897 0.2632901 -1.3889269 0 0 0 172.0 14.0 1.3710938  255
-0.5192625 0.2626349 -1.3898045 0 0 0 172.0 15.0 1.3720703  255
-0.51966614 0.26197857 -1.3906817 0 0 0 172.0 16.0 1.3730469  255
-0.52044517 0.26149166 -1.3926511 0 0 0 172.0 17.0 1.375  255
-0.52084875 0.26083237 -1.3935276 0 0 0 172.0 18.0 1.3759766  255
-0.52162796 0.2603414 -1.3954959 0 0 0 172.0 19.0 1.3779297  255
-0.5220318 0.25967917 -1.3963716 0 0 0 172.0 20.0 1.3789062  255
-0.5228111 0.25918415 -1.3983388 0 0 0 172.0 21.0 1.3808594  255
-0.5235905 0.2586867 -1.4003055 0 0 0 172.0 22.0 1.3828125  255
-0.5243701 0.2581869 -1.4022715 0 0 0 172.0 23.0 1.3847656  255
-0.524774 0.2575182 -1.4031456 0 0 0 172.0 24.0 1.3857422  255
-0.5255536 0.2570143 -1.4051105 0 0 0 172.0 25.0 1.3876953  255
-0.526709 0.2566735 -1.4081658 0 0 0 172.0 26.0 1.390625  255
-0.5274888 0.2561643 -1.4101293 0 0 0 172.0 27.0 1.3925781  255
-0.5275174 0.25532418 -1.4099108 0 0 0 172.0 28.0 1.3925781  255
-0.52829736 0.25481147 -1.4118735 0 0 0 172.0 29.0 1.3945312  255
-0.5294531 0.25445956 -1.4149259 0 0 0 172.0 30.0 1.3974609  255
-0.5302332 0.25394148 -1.4168872 0 0 0 172.0 31.0 1.3994141  255
-0.5306377 0.25325915 -1.4177576 0 0 0 172.0 32.0 1.4003906  255
-0.53029054 0.25225294 -1.4164479 0 0 0 172.0 33.0 1.3994141  255
-0.5310709 0.25173026 -1.4184079 0 0 0 172.0 34.0 1.4013672  255
-0.52734137 0.2492831 -1.4072913 0 0 0 172.0 35.0 1.3916016  255
-0.51797384 0.24445397 -1.3798349 0 0 0 172.0 36.0 1.3671875  255
-0.33157405 0.16476893 -0.8392955 0 0 0 172.0 37.0 0.8828125  255
-0.32463828 0.16130587 -0.81900656 0 0 0 172.0 38.0 0.8647461  255
-0.324656 0.16078421 -0.81887084 0 0 0 172.0 39.0 0.8647461  255
-0.32373396 0.1598694 -0.81601286 0 0 0 172.0 40.0 0.8623047  255
-0.32224783 0.15872264 -0.81152254 0 0 0 172.0 41.0 0.85839844  255
-0.3203856 0.15742454 -0.8059448 0 0 0 172.0 42.0 0.8535156  255
-0.31927517 0.15644327 -0.80254555 0 0 0 172.0 43.0 0.85058594  255
-0.31872857 0.15569785 -0.80077964 0 0 0 172.0 44.0 0.8491211  255
-0.31836998 0.15503123 -0.7995582 0 0 0 172.0 45.0 0.84814453  255
-0.3180113 0.15436587 -0.7983371 0 0 0 172.0 46.0 0.84716797  255
-0.3180287 0.15385479 -0.7982042 0 0 0 172.0 47.0 0.84716797  255
-0.31804603 0.1533437 -0.7980712 0 0 0 172.0 48.0 0.84716797  255
-0.31787536 0.15275669 -0.7973945 0 0 0 172.0 49.0 0.8466797  255
-0.3178927 0.15224585 -0.7972616 0 0 0 172.0 50.0 0.8466797  255
-0.31791005 0.15173507 -0.79712874 0 0 0 172.0 51.0 0.8466797  255
-0.31792742 0.15122429 -0.7969959 0 0 0 172.0 52.0 0.8466797  255
-0.31813285 0.15078825 -0.79740644 0 0 0 172.0 53.0 0.84716797  255
-0.3183383 0.15035167 -0.7978169 0 0 0 172.0 54.0 0.84765625  255
-0.31873187 0.14998865 -0.7987704 0 0 0 172.0 55.0 0.8486328  255
-0.3189374 0.14955059 -0.7991805 0 0 0 172.0 56.0 0.8491211  255
-0.31933105 0.14918554 -0.8001335 0 0 0 172.0 57.0 0.85009766  255
-0.31953666 0.14874598 -0.8005432 0 0 0 172.0 58.0 0.85058594  255
-0.3197422 0.14830583 -0.8009527 0 0 0 172.0 59.0 0.8510742  255
-0.31994784 0.14786509 -0.80136204 0 0 0 172.0 60.0 0.8515625  255
-0.32034165 0.1474962 -0.8023141 0 0 0 172.0 61.0 0.85253906  255
-0.32054728 0.14705402 -0.80272305 0 0 0 172.0 62.0 0.85302734  255
-0.32094115 0.14668307 -0.8036746 0 0 0 172.0 63.0 0.8540039  255
-0.32114688 0.1462394 -0.80408317 0 0 0 172.0 64.0 0.8544922  255
-0.32172897 0.14593762 -0.8055767 0 0 0 172.0 65.0 0.85595703  255
-0.3223112 0.14563408 -0.8070697 0 0 0 172.0 66.0 0.8574219  255
-0.32270524 0.14525813 -0.80801994 0 0 0 172.0 67.0 0.85839844  255
-0.32328755 0.14495136 -0.80951214 0 0 0 172.0 68.0 0.8598633  255
-0.32424647 0.14478293 -0.8120883 0 0 0 172.0 69.0 0.8623047  255
-0.32501715 0.14454184 -0.8141216 0 0 0 172.0 70.0 0.8642578  255
-0.32635278 0.14450678 -0.81778055 0 0 0 172.0 71.0 0.8676758  255
-0.3280651 0.14460602 -0.82252234 0 0 0 172.0 72.0 0.8720703  255
-0.3297776 0.14469993 -0.8272628 0 0 0 172.0 73.0 0.87646484  255
-0.33186686 0.14492568 -0.8330856 0 0 0 172.0 74.0 0.88183594  255
-0.33357975 0.14500841 -0.8378231 0 0 0 172.0 75.0 0.88623047  255
-0.33491617 0.14494982 -0.8414759 0 0 0 172.0 76.0 0.88964844  255
-0.336441 0.1449548 -0.8456692 0 0 0 172.0 77.0 0.8935547  255
-0.3375894 0.14482023 -0.8487782 0 0 0 172.0 78.0 0.8964844  255
-0.33854952 0.144615 -0.8513448 0 0 0 172.0 79.0 0.8989258  255
-0.33950976 0.14440686 -0.8539107 0 0 0 172.0 80.0 0.9013672  255
-0.339905 0.14399612 -0.8548519 0 0 0 172.0 81.0 0.90234375  255
-0.34030023 0.14358425 -0.8557927 0 0 0 172.0 82.0 0.9033203  255
-0.34031874 0.14303926 -0.85565096 0 0 0 172.0 83.0 0.9033203  255
-0.34090248 0.14269125 -0.8571324 0 0 0 172.0 84.0 0.90478516  255
-0.34110942 0.14221072 -0.8575315 0 0 0 172.0 85.0 0.90527344  255
-0.3416932 0.1418598 -0.8590122 0 0 0 172.0 86.0 0.9067383  255
-0.34208867 0.14144227 -0.85995156 0 0 0 172.0 87.0 0.90771484  255
-0.3430495 0.14121705 -0.862513 0 0 0 172.0 88.0 0.91015625  255
-0.34382194 0.14092466 -0.8645329 0 0 0 172.0 89.0 0.9121094  255
-0.34478295 0.14069381 -0.8670929 0 0 0 172.0 90.0 0.9145508  255
-0.346121 0.1405872 -0.8707332 0 0 0 172.0 91.0 0.91796875  255
-0.34783614 0.14060305 -0.8754533 0 0 0 172.0 92.0 0.9223633  255
-0.34936297 0.14055058 -0.8796317 0 0 0 172.0 93.0 0.92626953  255
-0.35032448 0.1403053 -0.8821879 0 0 0 172.0 94.0 0.92871094  255
-0.35128608 0.14005706 -0.8847433 0 0 0 172.0 95.0 0.93115234  255
-0.35224774 0.13980588 -0.88729805 0 0 0 172.0 96.0 0.93359375  255
-0.353021 0.13948995 -0.88931185 0 0 0 172.0 97.0 0.9355469  255
-0.35417145 0.13929467 -0.8924051 0 0 0 172.0 98.0 0.93847656  255
-0.35494485 0.13897344 -0.89441746 0 0 0 172.0 99.0 0.9404297  255
-0.35571837 0.13864985 -0.89642936 0 0 0 172.0 100.0 0.9423828  255
-0.35668057 0.13838454 -0.8989803 0 0 0 172.0 101.0 0.9448242  255
-0.35726568 0.13799554 -0.9004511 0 0 0 172.0 102.0 0.94628906  255
-0.35785085 0.13760483 -0.90192145 0 0 0 172.0 103.0 0.9477539  255
-0.35843605 0.13721235 -0.9033914 0 0 0 172.0 104.0 0.94921875  255
-0.35920998 0.13687757 -0.90540034 0 0 0 172.0 105.0 0.9511719  255
-0.35998398 0.13654038 -0.90740865 0 0 0 172.0 106.0 0.953125  255
-0.360758 0.13620088 -0.90941626 0 0 0 172.0 107.0 0.9550781  255
-0.36153218 0.13585901 -0.9114234 0 0 0 172.0 108.0 0.95703125  255
-0.36211774 0.1354565 -0.91289073 0 0 0 172.0 109.0 0.9584961  255
-0.36289203 0.13511023 -0.91489667 0 0 0 172.0 110.0 0.9604492  255
-0.3631004 0.13458847 -0.91528493 0 0 0 172.0 111.0 0.9609375  255
-0.36368608 0.13418096 -0.91675085 0 0 0 172.0 112.0 0.96240234  255
-0.3637058 0.13360035 -0.9165998 0 0 0 172.0 113.0 0.96240234  255
-0.36391428 0.13307655 -0.9169876 0 0 0 172.0 114.0 0.9628906  255
-0.363934 0.13249564 -0.91683644 0 0 0 172.0 115.0 0.9628906  255
-0.36395374 0.13191473 -0.9166854 0 0 0 172.0 116.0 0.9628906  255
-0.36416218 0.13138977 -0.91707283 0 0 0 172.0 117.0 0.9633789  255
-0.36437067 0.1308642 -0.91746014 0 0 0 172.0 118.0 0.9638672  255
-0.36420166 0.13022736 -0.9167704 0 0 0 172.0 119.0 0.9633789  255
-0.3642214 0.12964618 -0.91661924 0 0 0 172.0 120.0 0.9633789  255
-0.3640524 0.1290102 -0.91592985 0 0 0 172.0 121.0 0.9628906  255
-0.3644497 0.12853822 -0.91685504 0 0 0 172.0 122.0 0.9638672  255
-0.36446947 0.12795675 -0.91670376 0 0 0 172.0 123.0 0.9638672  255
-0.36467803 0.12742908 -0.9170905 0 0 0 172.0 124.0 0.96435547  255
-0.36450896 0.12679371 -0.9164012 0 0 0 172.0 125.0 0.9638672  255
-0.3650952 0.12637205 -0.91786355 0 0 0 172.0 126.0 0.96533203  255
-0.36492613 0.12573671 -0.9171743 0 0 0 172.0 127.0 0.96484375  255
-0.3653236 0.12526003 -0.9180983 0 0 0 172.0 128.0 0.9658203  255
-0.36515453 0.12462495 -0.917409 0 0 0 172.0 129.0 0.96533203  255
-0.36536318 0.124094665 -0.9177951 0 0 0 172.0 130.0 0.9658203  255
-0.36576074 0.1236156 -0.9187185 0 0 0 172.0 131.0 0.9667969  255
-0.3663472 0.12318688 -0.92017895 0 0 0 172.0 132.0 0.9682617  255
-0.36655593 0.12265397 -0.92056435 0 0 0 172.0 133.0 0.96875  255
-0.36695358 0.12217136 -0.9214868 0 0 0 172.0 134.0 0.96972656  255
-0.36697346 0.12158631 -0.92133456 0 0 0 172.0 135.0 0.96972656  255
-0.3669933 0.12100129 -0.92118245 0 0 0 172.0 136.0 0.96972656  255
-0.36739105 0.120516345 -0.9221043 0 0 0 172.0 137.0 0.9707031  255
-0.367222 0.119880974 -0.92141503 0 0 0 172.0 138.0 0.97021484  255
-0.3672419 0.11929566 -0.9212627 0 0 0 172.0 139.0 0.97021484  255
-0.36726177 0.11871031 -0.92111045 0 0 0 172.0 140.0 0.97021484  255
-0.36822656 0.1183693 -0.92364174 0 0 0 172.0 141.0 0.97265625  255
-0.3682465 0.117782496 -0.92348915 0 0 0 172.0 142.0 0.97265625  255
-0.36864442 0.11729225 -0.92440957 0 0 0 172.0 143.0 0.9736328  255
-0.36866435 0.116704844 -0.92425674 0 0 0 172.0 144.0 0.9736328  255
-0.36906233 0.11621281 -0.9251768 0 0 0 172.0 145.0 0.9746094  255
-0.36889327 0.11557747 -0.92448753 0 0 0 172.0 146.0 0.9741211  255
-0.36891323 0.114989765 -0.9243347 0 0 0 172.0 147.0 0.9741211  255
-0.3683661 0.11426174 -0.92257327 0 0 0 172.0 148.0 0.97265625  255
-0.36857504 0.11372141 -0.92295665 0 0 0 172.0 149.0 0.97314453  255
-0.368595 0.1131343 -0.92280394 0 0 0 172.0 150.0 0.97314453  255
-0.36918217 0.11268499 -0.9242591 0 0 0 172.0 151.0 0.9746094  255
-0.36920217 0.11209702 -0.9241062 0 0 0 172.0 152.0 0.9746094  255
-0.3696003 0.111599654 -0.9250248 0 0 0 172.0 153.0 0.97558594  255
-0.36999848 0.11110115 -0.9259431 0 0 0 172.0 154.0 0.9765625  255
-0.37001848 0.11051202 -0.9257899 0 0 0 172.0 155.0 0.9765625  255
-0.37022763 0.109967306 -0.9261722 0 0 0 172.0 156.0 0.9770508  255
-0.37024766 0.109377876 -0.9260188 0 0 0 172.0 157.0 0.9770508  255
-0.3702677 0.108788386 -0.9258655 0 0 0 172.0 158.0 0.9770508  255
-0.37009856 0.1081554 -0.9251768 0 0 0 172.0 159.0 0.9765625  255
-0.37011856 0.10756624 -0.9250235 0 0 0 172.0 160.0 0.9765625  255
-0.3699494 0.106934115 -0.92433506 0 0 0 172.0 161.0 0.9760742  255
-0.3694019 0.10621723 -0.9225766 0 0 0 172.0 162.0 0.9746094  255
-0.36885425 0.105502136 -0.9208185 0 0 0 172.0 163.0 0.97314453  255
-0.36887422 0.10491503 -0.9206658 0 0 0 172.0 164.0 0.97314453  255
-0.36851573 0.10424439 -0.9194434 0 0 0 172.0 165.0 0.97216797  255
-0.367968 0.1035334 -0.9176864 0 0 0 172.0 166.0 0.9707031  255
-0.3676094 0.10286535 -0.9164646 0 0 0 172.0 167.0 0.96972656  255
-0.36781853 0.10232121 -0.91684705 0 0 0 172.0 168.0 0.97021484  255
-0.36764917 0.101695284 -0.9161603 0 0 0 172.0 169.0 0.96972656  255
-0.3678583 0.1011506 -0.9165426 0 0 0 172.0 170.0 0.97021484  255
-0.36825672 0.100645274 -0.9174591 0 0 0 172.0 171.0 0.9711914  255
-0.36808735 0.10001962 -0.9167723 0 0 0 172.0 172.0 0.9707031  255
-0.36848584 0.09951289 -0.91768855 0 0 0 172.0 173.0 0.9716797  255
-0.36869505 0.09896583 -0.91807026 0 0 0 172.0 174.0 0.97216797  255
-0.3690936 0.098457016 -0.9189859 0 0 0 172.0 175.0 0.97314453  255
-0.36987084 0.098024145 -0.9209693 0 0 0 172.0 176.0 0.97509766  255
-0.37064815 0.09758888 -0.9229521 0 0 0 172.0 177.0 0.9770508  255
-0.37199357 0.09726517 -0.9265359 0 0 0 172.0 178.0 0.98046875  255
-0.37258175 0.09678662 -0.92798334 0 0 0 172.0 179.0 0.9819336  255
-0.3733593 0.09634373 -0.92996424 0 0 0 172.0 180.0 0.9838867  255
-0.3737582 0.09582431 -0.93087703 0 0 0 172.0 181.0 0.9848633  255
-0.3749147 0.09545083 -0.9339239 0 0 0 172.0 182.0 0.98779297  255
-0.37626064 0.09511034 -0.9375034 0 0 0 172.0 183.0 0.99121094  255
-0.37912202 0.09505524 -0.94534904 0 0 0 172.0 184.0 0.99853516  255
-0.38236248 0.09506312 -0.9542592 0 0 0 172.0 185.0 1.0068359  255
-0.39033887 0.09595107 -0.9764983 0 0 0 172.0 186.0 1.0273438  255
-0.6400317 0.1418694 -1.6790786 0 0 0 172.0 187.0 1.6708984  255
-0.6590102 0.14436287 -1.7321275 0 0 0 172.0 188.0 1.7197266  255
-0.6037253 0.13318701 -1.5762115 0 0 0 172.0 189.0 1.5771484  255
-0.63823986 0.13850105 -1.6729623 0 0 0 172.0 190.0 1.6660156  255
-0.6121267 0.13278575 -1.5991633 0 0 0 172.0 191.0 1.5986328  255
-0.5097493 0.27106568 -1.3688658 0 0 0 173.0 0.0 1.3505859  255
-0.5101515 0.2704311 -1.3697487 0 0 0 173.0 1.0 1.3515625  255
-0.5109283 0.2699749 -1.371726 0 0 0 173.0 2.0 1.3535156  255
-0.5113306 0.26933736 -1.3726081 0 0 0 173.0 3.0 1.3544922  255
-0.5121076 0.26887703 -1.3745842 0 0 0 173.0 4.0 1.3564453  255
-0.5121354 0.26805866 -1.3743714 0 0 0 173.0 5.0 1.3564453  255
-0.5125378 0.26741764 -1.3752526 0 0 0 173.0 6.0 1.3574219  255
-0.5136896 0.2671287 -1.3783213 0 0 0 173.0 7.0 1.3603516  255
-0.51446676 0.2666601 -1.3802953 0 0 0 173.0 8.0 1.3623047  255
-0.5152441 0.26618922 -1.3822687 0 0 0 173.0 9.0 1.3642578  255
-0.5156469 0.26554108 -1.383148 0 0 0 173.0 10.0 1.3652344  255
-0.5156748 0.26471746 -1.3829337 0 0 0 173.0 11.0 1.3652344  255
-0.51682705 0.26441494 -1.3859988 0 0 0 173.0 12.0 1.3681641  255
-0.5172298 0.2637626 -1.3868772 0 0 0 173.0 13.0 1.3691406  255
-0.51763266 0.26310924 -1.3877552 0 0 0 173.0 14.0 1.3701172  255
-0.5184104 0.26262656 -1.3897254 0 0 0 173.0 15.0 1.3720703  255
-0.51918817 0.2621415 -1.3916953 0 0 0 173.0 16.0 1.3740234  255
-0.5195913 0.26148325 -1.3925719 0 0 0 173.0 17.0 1.375  255
-0.5199942 0.26082397 -1.3934484 0 0 0 173.0 18.0 1.3759766  255
-0.5207723 0.260333 -1.3954165 0 0 0 173.0 19.0 1.3779297  255
-0.52117544 0.2596707 -1.3962922 0 0 0 173.0 20.0 1.3789062  255
-0.5219535 0.2591757 -1.3982594 0 0 0 173.0 21.0 1.3808594  255
-0.52273166 0.25867823 -1.4002259 0 0 0 173.0 22.0 1.3828125  255
-0.52313507 0.25801122 -1.4011003 0 0 0 173.0 23.0 1.3837891  255
-0.52391344 0.25750974 -1.4030657 0 0 0 173.0 24.0 1.3857422  255
-0.52506685 0.25717187 -1.4061217 0 0 0 173.0 25.0 1.3886719  255
-0.52584535 0.256665 -1.4080857 0 0 0 173.0 26.0 1.390625  255
-0.52662396 0.2561558 -1.4100492 0 0 0 173.0 27.0 1.3925781  255
-0.5266525 0.25531566 -1.4098306 0 0 0 173.0 28.0 1.3925781  255
-0.5274313 0.25480294 -1.4117931 0 0 0 173.0 29.0 1.3945312  255
-0.5282101 0.25428787 -1.413755 0 0 0 173.0 30.0 1.3964844  255
-0.528989 0.25377038 -1.4157163 0 0 0 173.0 31.0 1.3984375  255
-0.53014314 0.2534125 -1.4187671 0 0 0 173.0 32.0 1.4013672  255
-0.530547 0.25272843 -1.4196371 0 0 0 173.0 33.0 1.4023438  255
-0.5279494 0.25075713 -1.4117887 0 0 0 173.0 34.0 1.3955078  255
-0.5272275 0.24959496 -1.4093904 0 0 0 173.0 35.0 1.3935547  255
-0.52763134 0.24891376 -1.4102612 0 0 0 173.0 36.0 1.3945312  255
-0.34978855 0.17271286 -0.8937101 0 0 0 173.0 37.0 0.9316406  255
-0.32353836 0.16106299 -0.817323 0 0 0 173.0 38.0 0.86328125  255
-0.3237437 0.16062108 -0.81773204 0 0 0 173.0 39.0 0.86376953  255
-0.32357374 0.16002133 -0.81705207 0 0 0 173.0 40.0 0.86328125  255
-0.32321608 0.1593439 -0.8158279 0 0 0 173.0 41.0 0.8623047  255
-0.32098162 0.15788746 -0.8091613 0 0 0 173.0 42.0 0.8564453  255
-0.31987303 0.15690443 -0.80576175 0 0 0 173.0 43.0 0.8535156  255
-0.31895202 0.15600234 -0.80290717 0 0 0 173.0 44.0 0.8510742  255
-0.31821865 0.15518034 -0.8005975 0 0 0 173.0 45.0 0.8491211  255
-0.31786063 0.15451437 -0.79937625 0 0 0 173.0 46.0 0.84814453  255
-0.317878 0.1540027 -0.79924315 0 0 0 173.0 47.0 0.84814453  255
-0.31770766 0.15341476 -0.7985662 0 0 0 173.0 48.0 0.84765625  255
-0.31772503 0.15290341 -0.79843324 0 0 0 173.0 49.0 0.84765625  255
-0.3177424 0.152392 -0.7983002 0 0 0 173.0 50.0 0.84765625  255
-0.31794754 0.15195596 -0.79871076 0 0 0 173.0 51.0 0.84814453  255
-0.3179649 0.15144429 -0.7985776 0 0 0 173.0 52.0 0.84814453  255
-0.31817007 0.15100741 -0.798988 0 0 0 173.0 53.0 0.8486328  255
-0.3185631 0.15064442 -0.7999415 0 0 0 173.0 54.0 0.8496094  255
-0.3187683 0.15020603 -0.80035144 0 0 0 173.0 55.0 0.85009766  255
-0.31916133 0.14984095 -0.8013044 0 0 0 173.0 56.0 0.8510742  255
-0.31936663 0.1494011 -0.80171394 0 0 0 173.0 57.0 0.8515625  255
-0.3195719 0.14896068 -0.80212337 0 0 0 173.0 58.0 0.8520508  255
-0.31996506 0.14859265 -0.80307555 0 0 0 173.0 59.0 0.85302734  255
-0.32035828 0.14822346 -0.8040275 0 0 0 173.0 60.0 0.8540039  255
-0.32075152 0.1478531 -0.8049791 0 0 0 173.0 61.0 0.85498047  255
-0.32095692 0.14740944 -0.8053876 0 0 0 173.0 62.0 0.85546875  255
-0.32135022 0.14703703 -0.8063387 0 0 0 173.0 63.0 0.8564453  255
-0.32174355 0.1466634 -0.8072895 0 0 0 173.0 64.0 0.8574219  255
-0.32232487 0.14635983 -0.80878246 0 0 0 173.0 65.0 0.8588867  255
-0.32290623 0.14605454 -0.81027496 0 0 0 173.0 66.0 0.86035156  255
-0.32367557 0.14581811 -0.8123093 0 0 0 173.0 67.0 0.8623047  255
-0.32425708 0.14550897 -0.8138009 0 0 0 173.0 68.0 0.86376953  255
-0.3252145 0.14533821 -0.8163763 0 0 0 173.0 69.0 0.86621094  255
-0.32617208 0.1451645 -0.818951 0 0 0 173.0 70.0 0.86865234  255
-0.32769358 0.14519629 -0.82315105 0 0 0 173.0 71.0 0.8725586  255
-0.3294033 0.14529252 -0.8278919 0 0 0 173.0 72.0 0.8769531  255
-0.33092514 0.14531454 -0.8320894 0 0 0 173.0 73.0 0.8808594  255
-0.33263522 0.14540046 -0.8368275 0 0 0 173.0 74.0 0.8852539  255
-0.3339694 0.1453445 -0.8404808 0 0 0 173.0 75.0 0.8886719  255
-0.33530375 0.1452844 -0.844133 0 0 0 173.0 76.0 0.89208984  255
-0.33626217 0.14508474 -0.84670097 0 0 0 173.0 77.0 0.89453125  255
-0.3372207 0.14488214 -0.8492681 0 0 0 173.0 78.0 0.89697266  255
-0.33799127 0.14460951 -0.8512931 0 0 0 173.0 79.0 0.8989258  255
-0.33876193 0.14433451 -0.85331744 0 0 0 173.0 80.0 0.9008789  255
-0.33896843 0.14385754 -0.8537173 0 0 0 173.0 81.0 0.9013672  255
-0.33955115 0.14351247 -0.8551995 0 0 0 173.0 82.0 0.90283203  255
-0.33956966 0.14296778 -0.8550578 0 0 0 173.0 83.0 0.90283203  255
-0.33996436 0.14255443 -0.8559982 0 0 0 173.0 84.0 0.9038086  255
-0.3403591 0.14213985 -0.8569383 0 0 0 173.0 85.0 0.90478516  255
-0.340942 0.14178921 -0.858419 0 0 0 173.0 86.0 0.90625  255
-0.34152496 0.14143673 -0.8598992 0 0 0 173.0 87.0 0.90771484  255
-0.34191984 0.14101806 -0.86083835 0 0 0 173.0 88.0 0.9086914  255
-0.34306735 0.14085491 -0.8639397 0 0 0 173.0 89.0 0.9116211  255
-0.3440268 0.14062431 -0.8664996 0 0 0 173.0 90.0 0.9140625  255
-0.3455509 0.1405816 -0.8706803 0 0 0 173.0 91.0 0.91796875  255
-0.3472633 0.14059739 -0.87540025 0 0 0 173.0 92.0 0.9223633  255
-0.34841138 0.14041892 -0.87849766 0 0 0 173.0 93.0 0.92529297  255
-0.3493713 0.1401742 -0.88105386 0 0 0 173.0 94.0 0.9277344  255
-0.35033137 0.13992655 -0.88360935 0 0 0 173.0 95.0 0.9301758  255
-0.3511033 0.1396138 -0.8856239 0 0 0 173.0 96.0 0.9321289  255
-0.35206357 0.13936055 -0.8881778 0 0 0 173.0 97.0 0.9345703  255
-0.35283566 0.13904285 -0.89019114 0 0 0 173.0 98.0 0.93652344  255
-0.35360783 0.13872279 -0.89220375 0 0 0 173.0 99.0 0.93847656  255
-0.35419184 0.1383394 -0.89367586 0 0 0 173.0 100.0 0.9399414  255
-0.35515243 0.13807556 -0.8962272 0 0 0 173.0 101.0 0.9423828  255
-0.3559249 0.13774839 -0.898238 0 0 0 173.0 102.0 0.94433594  255
-0.3565091 0.13735884 -0.89970857 0 0 0 173.0 103.0 0.9458008  255
-0.35728168 0.13702726 -0.9017182 0 0 0 173.0 104.0 0.9477539  255
-0.35786602 0.13663389 -0.9031878 0 0 0 173.0 105.0 0.94921875  255
-0.35845044 0.13623872 -0.90465695 0 0 0 173.0 106.0 0.9506836  255
-0.35922328 0.13590065 -0.9066649 0 0 0 173.0 107.0 0.9526367  255
-0.35980776 0.13550168 -0.908133 0 0 0 173.0 108.0 0.95410156  255
-0.360204 0.13504264 -0.9090616 0 0 0 173.0 109.0 0.9550781  255
-0.36097702 0.13469842 -0.9110679 0 0 0 173.0 110.0 0.95703125  255
-0.361185 0.13417873 -0.91145664 0 0 0 173.0 111.0 0.95751953  255
-0.36158141 0.13371587 -0.9123842 0 0 0 173.0 112.0 0.9584961  255
-0.36178944 0.13319473 -0.9127726 0 0 0 173.0 113.0 0.9589844  255
-0.3619975 0.132673 -0.91316086 0 0 0 173.0 114.0 0.95947266  255
-0.36182874 0.1320376 -0.9124716 0 0 0 173.0 115.0 0.9589844  255
-0.36184838 0.13145907 -0.91232115 0 0 0 173.0 116.0 0.9589844  255
-0.3620565 0.13093644 -0.9127092 0 0 0 173.0 117.0 0.95947266  255
-0.362453 0.13046888 -0.91363543 0 0 0 173.0 118.0 0.9604492  255
-0.36247268 0.12988946 -0.91348475 0 0 0 173.0 119.0 0.9604492  255
-0.36230394 0.12925498 -0.9127957 0 0 0 173.0 120.0 0.95996094  255
-0.3623236 0.1286758 -0.91264504 0 0 0 173.0 121.0 0.95996094  255
-0.36272025 0.12820558 -0.9135707 0 0 0 173.0 122.0 0.9609375  255
-0.36255142 0.1275717 -0.9128818 0 0 0 173.0 123.0 0.9604492  255
-0.36275965 0.12704612 -0.9132691 0 0 0 173.0 124.0 0.9609375  255
-0.36296782 0.12651995 -0.9136562 0 0 0 173.0 125.0 0.9614258  255
-0.36336455 0.12604651 -0.914581 0 0 0 173.0 126.0 0.96240234  255
-0.36357284 0.12551889 -0.9149677 0 0 0 173.0 127.0 0.9628906  255
-0.36378106 0.12499065 -0.9153542 0 0 0 173.0 128.0 0.9633789  255
-0.36380082 0.124409445 -0.91520303 0 0 0 173.0 129.0 0.9633789  255
-0.36400914 0.12388035 -0.9155894 0 0 0 173.0 130.0 0.9638672  255
-0.3642175 0.123350665 -0.91597563 0 0 0 173.0 131.0 0.96435547  255
-0.36423725 0.122768894 -0.91582423 0 0 0 173.0 132.0 0.96435547  255
-0.36463416 0.12228952 -0.9167475 0 0 0 173.0 133.0 0.96533203  255
-0.36446536 0.12165621 -0.9160587 0 0 0 173.0 134.0 0.96484375  255
-0.36467373 0.12112476 -0.9164445 0 0 0 173.0 135.0 0.96533203  255
-0.3648821 0.12059268 -0.91683 0 0 0 173.0 136.0 0.9658203  255
-0.36509058 0.12006007 -0.9172155 0 0 0 173.0 137.0 0.9663086  255
-0.36529902 0.11952684 -0.9176007 0 0 0 173.0 138.0 0.9667969  255
-0.3651302 0.118894145 -0.91691214 0 0 0 173.0 139.0 0.9663086  255
-0.36552727 0.11840945 -0.917834 0 0 0 173.0 140.0 0.96728516  255
-0.36554712 0.11782592 -0.91768223 0 0 0 173.0 141.0 0.96728516  255
-0.36613294 0.11738805 -0.9191403 0 0 0 173.0 142.0 0.96875  255
-0.36634153 0.11685183 -0.9195247 0 0 0 173.0 143.0 0.9692383  255
-0.3667388 0.11636305 -0.9204455 0 0 0 173.0 144.0 0.97021484  255
-0.36656994 0.11573009 -0.91975695 0 0 0 173.0 145.0 0.96972656  255
-0.36677858 0.11519244 -0.92014104 0 0 0 173.0 146.0 0.97021484  255
-0.36698714 0.1146542 -0.920525 0 0 0 173.0 147.0 0.9707031  255
-0.36681834 0.11402181 -0.91983646 0 0 0 173.0 148.0 0.97021484  255
-0.3672157 0.11352947 -0.9207564 0 0 0 173.0 149.0 0.9711914  255
-0.3672356 0.11294356 -0.92060393 0 0 0 173.0 150.0 0.9711914  255
-0.36763301 0.112449475 -0.9215234 0 0 0 173.0 151.0 0.97216797  255
-0.36765295 0.111862965 -0.9213708 0 0 0 173.0 152.0 0.97216797  255
-0.3678617 0.11132174 -0.92175406 0 0 0 173.0 153.0 0.97265625  255
-0.3680704 0.11077998 -0.9221371 0 0 0 173.0 154.0 0.97314453  255
-0.3682792 0.11023762 -0.92252 0 0 0 173.0 155.0 0.9736328  255
-0.36848792 0.1096947 -0.92290264 0 0 0 173.0 156.0 0.9741211  255
-0.36869675 0.10915118 -0.9232853 0 0 0 173.0 157.0 0.9746094  255
-0.36871672 0.10856315 -0.92313224 0 0 0 173.0 158.0 0.9746094  255
-0.36892554 0.10801877 -0.92351466 0 0 0 173.0 159.0 0.97509766  255
-0.36875665 0.10738724 -0.92282635 0 0 0 173.0 160.0 0.9746094  255
-0.36877665 0.10679924 -0.9226734 0 0 0 173.0 161.0 0.9746094  255
-0.3686077 0.106168576 -0.92198545 0 0 0 173.0 162.0 0.9741211  255
-0.3682499 0.105496176 -0.9207625 0 0 0 173.0 163.0 0.97314453  255
-0.36864763 0.10499323 -0.9216797 0 0 0 173.0 164.0 0.9741211  255
-0.3681009 0.104280196 -0.9199223 0 0 0 173.0 165.0 0.97265625  255
-0.3679319 0.10365192 -0.9192348 0 0 0 173.0 166.0 0.97216797  255
-0.3679518 0.10306541 -0.9190822 0 0 0 173.0 167.0 0.97216797  255
-0.36816072 0.1025198 -0.9194643 0 0 0 173.0 168.0 0.97265625  255
-0.36836958 0.1019736 -0.91984624 0 0 0 173.0 169.0 0.97314453  255
-0.36820057 0.10134622 -0.919159 0 0 0 173.0 170.0 0.97265625  255
-0.36840945 0.10079942 -0.9195407 0 0 0 173.0 171.0 0.97314453  255
-0.36824045 0.1001726 -0.9188537 0 0 0 173.0 172.0 0.97265625  255
-0.36826038 0.099585794 -0.9187011 0 0 0 173.0 173.0 0.97265625  255
-0.36884728 0.09911645 -0.92015094 0 0 0 173.0 174.0 0.9741211  255
-0.36905628 0.0985676 -0.92053205 0 0 0 173.0 175.0 0.9746094  255
-0.3703994 0.09824946 -0.92411715 0 0 0 173.0 176.0 0.97802734  255
-0.3717426 0.09792717 -0.9277012 0 0 0 173.0 177.0 0.9814453  255
-0.37327507 0.09763872 -0.93181795 0 0 0 173.0 178.0 0.98535156  255
-0.37348425 0.097081944 -0.93219703 0 0 0 173.0 179.0 0.98583984  255
-0.37331545 0.096449815 -0.9315086 0 0 0 173.0 180.0 0.98535156  255
-0.37333566 0.09585535 -0.931354 0 0 0 173.0 181.0 0.98535156  255
-0.3767592 0.09592294 -0.9408031 0 0 0 173.0 182.0 0.9941406  255
-0.37942687 0.095833965 -0.94811565 0 0 0 173.0 183.0 1.0009766  255
-0.38209474 0.09573674 -0.95542604 0 0 0 173.0 184.0 1.0078125  255
-0.43128377 0.10446167 -1.0939292 0 0 0 173.0 185.0 1.1347656  255
-0.64009446 0.1430809 -1.6824441 0 0 0 173.0 186.0 1.6738281  255
-0.6469374 0.14334202 -1.7013751 0 0 0 173.0 187.0 1.6914062  255
-0.65529424 0.14386219 -1.7245653 0 0 0 173.0 188.0 1.7128906  255
-0.64473695 0.14088464 -1.6944481 0 0 0 173.0 189.0 1.6855469  255
-0.63834006 0.13869736 -1.676064 0 0 0 173.0 190.0 1.6689453  255
-0.63686097 0.13741747 -1.6715392 0 0 0 173.0 191.0 1.6650391  255
-0.5085366 0.27087665 -1.3676932 0 0 0 174.0 0.0 1.3496094  255
-0.50931215 0.27042282 -1.369671 0 0 0 174.0 1.0 1.3515625  255
-0.5100877 0.2699666 -1.3716481 0 0 0 174.0 2.0 1.3535156  255
-0.5104894 0.26932907 -1.3725301 0 0 0 174.0 3.0 1.3544922  255
-0.5112652 0.26886874 -1.3745061 0 0 0 174.0 4.0 1.3564453  255
-0.511293 0.26805037 -1.3742933 0 0 0 174.0 5.0 1.3564453  255
-0.5120688 0.26758653 -1.3762684 0 0 0 174.0 6.0 1.3583984  255
-0.51284474 0.26712036 -1.378243 0 0 0 174.0 7.0 1.3603516  255
-0.5136208 0.26665175 -1.3802168 0 0 0 174.0 8.0 1.3623047  255
-0.5140228 0.26600537 -1.3810966 0 0 0 174.0 9.0 1.3632812  255
-0.514799 0.26553273 -1.3830694 0 0 0 174.0 10.0 1.3652344  255
-0.51520103 0.26488337 -1.3839483 0 0 0 174.0 11.0 1.3662109  255
-0.5159774 0.26440653 -1.3859202 0 0 0 174.0 12.0 1.3681641  255
-0.5163796 0.26375425 -1.3867984 0 0 0 174.0 13.0 1.3691406  255
-0.517156 0.2632733 -1.388769 0 0 0 174.0 14.0 1.3710938  255
-0.5179326 0.26279002 -1.3907391 0 0 0 174.0 15.0 1.3730469  255
-0.51833487 0.2621331 -1.3916161 0 0 0 174.0 16.0 1.3740234  255
-0.5187374 0.26147485 -1.3924928 0 0 0 174.0 17.0 1.375  255
-0.51913977 0.2608155 -1.3933691 0 0 0 174.0 18.0 1.3759766  255
-0.51991653 0.2603246 -1.3953372 0 0 0 174.0 19.0 1.3779297  255
-0.5203191 0.2596623 -1.3962128 0 0 0 174.0 20.0 1.3789062  255
-0.52109605 0.25916722 -1.3981799 0 0 0 174.0 21.0 1.3808594  255
-0.521873 0.25866976 -1.4001462 0 0 0 174.0 22.0 1.3828125  255
-0.5222757 0.25800276 -1.4010206 0 0 0 174.0 23.0 1.3837891  255
-0.5230528 0.25750127 -1.4029859 0 0 0 174.0 24.0 1.3857422  255
